ply
format ascii 1.0
element vertex 549
property float x
property float y
property float z
property float nx
property float ny
property float nz
property float curvature
property uchar red
property uchar green
property uchar blue
property uchar alpha
property float quality
property float radius
end_header
20.1035 1366.33 392.728 0.431831 0.888964 0.152531 1 56 145 92 255 5.19898 17.6257
4.3258 1371.22 397.836 0.285412 0.941353 0.179986 1 56 145 92 255 5.28008 14.669
-9.33241 1372.11 398.889 0.158207 0.971169 0.178329 1 56 145 92 255 5.36097 13.3055
-23.6378 1374.34 401.292 0.195706 0.967485 0.160227 1 56 145 92 255 5.4416 13.7637
-38.554 1377.89 405.043 0.281148 0.95173 0.123147 1 56 145 92 255 5.52192 15.0956
-54.6323 1384.04 411.416 0.29292 0.95322 0.0746217 1 56 145 92 255 5.60187 15.8061
-68.838 1386.4 413.964 0.282487 0.95865 0.034511 1 56 145 92 255 5.68142 16.2635
-84.1465 1391.29 419.055 0.304964 0.951468 0.0412922 1 56 145 92 255 5.76052 16.3285
-100.841 1399.5 427.522 0.263983 0.958046 0.111626 1 56 145 92 255 5.8391 14.572
-113.893 1399.71 427.891 0.150455 0.963849 0.219906 1 56 145 92 255 5.91712 12.3146
-126.945 1399.93 428.26 0.0688877 0.969736 0.234235 1 56 145 92 255 5.99453 11.6752
-139.997 1400.15 428.629 0.0422922 0.991177 0.125619 1 56 145 92 255 6.07129 12.4544
-153.049 1400.37 428.997 0.0363892 0.997481 0.0608868 1 56 145 92 255 6.14733 13.1007
-166.102 1400.59 429.366 -0.0334388 0.997707 0.0588467 1 56 145 92 255 6.2226 12.7724
-179.154 1400.81 429.735 -0.168769 0.983772 0.0609053 1 56 145 92 255 6.29707 12.2909
-189.706 1394.38 423.373 -0.204556 0.971767 0.117584 1 56 145 92 255 6.37066 11.7478
-202.825 1394.6 423.744 -0.207239 0.964049 0.166319 1 56 145 92 255 6.44334 11.3335
-214.015 1392.07 418.076 -0.372612 0.927184 0.0385998 1 56 145 92 255 1.95452 12.517
-140.161 1041.71 67.4026 -0.866286 0.412968 -0.281078 1 255 255 255 255 6.0515 42.2027
-135.369 976.922 3.71938 -0.986976 0.137211 0.08397 1 255 255 255 255 3.39562 33.885
-154.156 979.04 4.41443 -0.296271 0.0173287 0.954947 1 178 106 162 255 6.85736 17.0239
-172.188 981.693 7.29209 0.0393661 -0.00197821 0.999223 1 178 106 162 255 6.92222 18.023
-189.162 980.802 6.58938 0.0834481 0.131724 0.987768 1 178 106 162 255 6.98577 16.2331
-206.813 982.274 8.2703 0.080555 0.163015 0.98333 1 178 106 162 255 7.04796 15.8256
-224.759 984.921 11.1467 -0.0327551 0.0560476 0.997891 1 178 106 162 255 7.10874 16.701
-240.235 978.131 4.48101 -0.080717 -0.000211565 0.996737 1 178 106 162 255 7.16807 17.4386
-257.605 978.421 4.97123 0.0423101 -0.0149654 0.998992 1 178 106 162 255 7.22591 18.1845
-276.342 984.614 11.4183 0.0832827 -0.0369436 0.995841 1 178 106 162 255 7.2822 18.7553
-291.79 976.648 3.56691 0.080047 -0.00688794 0.996767 1 178 106 162 255 7.33691 18.0773
-310.689 984.015 11.2063 0.0806476 0.025803 0.996409 1 178 106 162 255 7.38999 17.4317
-328.245 985.485 12.8846 0.0157524 0.0314865 0.99938 1 178 106 162 255 7.44141 17.0783
-345.084 983.417 10.9943 -0.0512881 0.0423784 0.997784 1 178 106 162 255 7.49112 16.7886
-362.202 982.528 10.2915 -0.1917 0.0426833 0.980525 1 178 106 162 255 7.53908 16.5746
-378.512 976.926 4.83333 -0.286238 0.065879 0.955891 1 178 106 162 255 7.58525 16.4282
-394.353 967.794 -4.19159 -0.0157825 0.139672 0.990072 1 178 106 162 255 7.62961 15.6384
-412.932 975.156 3.437 0.261338 0.113695 0.958528 1 178 106 162 255 7.67211 17.044
-431.208 981.333 9.87524 0.110932 0.0124658 0.99375 1 178 106 162 255 7.71272 17.6349
-447.936 976.915 5.61212 -0.104058 -0.0399894 0.993767 1 178 106 162 255 7.7514 18.0701
-465.193 976.033 4.91339 -0.105017 0.0181325 0.994305 1 178 106 162 255 7.78814 17.0513
-482.613 976.325 5.40556 -0.0791138 0.0824619 0.993449 1 178 106 162 255 7.82289 16.082
-499.913 975.439 4.71061 -0.048947 0.171983 0.983883 1 178 106 162 255 7.85563 15.1037
-517.244 974.556 4.01376 0.0583253 0.177581 0.982376 1 178 106 162 255 7.88633 15.2224
-534.874 977.201 6.88197 0.031147 0.102942 0.9942 1 178 106 162 255 7.91497 15.9922
-551.954 972.789 2.62714 -0.0709824 0.1181 0.990461 1 178 106 162 255 7.94153 15.7619
-569.201 969.551 -0.435766 -0.0152001 0.164127 0.986322 1 178 106 162 255 7.96597 15.296
-586.76 971.02 1.24613 0.110189 0.079614 0.990717 1 178 106 162 255 7.9883 16.5339
-604.611 979.542 10.0387 0.0755756 -0.0454094 0.996106 1 178 106 162 255 8.00847 18.5927
-621.975 978.662 9.34266 -0.0220026 -0.000838027 0.999758 1 178 106 162 255 8.02648 17.6743
-639.344 976.602 7.46643 -0.108857 0.125028 0.986163 1 178 106 162 255 8.04232 15.8657
-656.723 972.195 3.221 -0.157197 0.129839 0.978995 1 178 106 162 255 8.05597 15.9594
-674.217 968.965 0.161743 -0.107074 0.102854 0.988917 1 178 106 162 255 8.06741 16.222
-691.751 968.083 -0.526111 -0.0483291 0.0512617 0.997515 1 178 106 162 255 8.07665 16.7582
-709.273 969.552 1.15215 -0.139055 -0.0318482 0.989772 1 178 106 162 255 8.08366 18.3838
-726.866 967.499 -0.720312 -0.283059 -0.0657813 0.956844 1 178 106 162 255 8.08846 19.8953
-744.823 957.224 -10.8668 -0.254081 -0.0240595 0.966884 1 178 106 162 255 8.09102 18.9712
-762.482 957.52 -10.3679 -0.126876 0.0469835 0.990805 1 178 106 162 255 8.09136 17.261
-780.567 950.774 -16.9609 -0.109072 0.0911843 0.989843 1 178 106 162 255 8.08946 16.6479
-798.46 948.722 -18.8211 -3.08222e-05 0.00411787 0.999992 1 178 106 162 255 8.08534 17.8583
-816.121 950.119 -17.2116 0.161447 -0.0424683 0.985967 1 178 106 162 255 8.07899 18.6052
-833.329 956.357 -10.7322 0.150086 -0.0293776 0.988236 1 178 106 162 255 8.07042 18.2661
-850.895 957.827 -9.05256 0.0390945 -0.0738995 0.996499 1 178 106 162 255 8.05963 19.1518
-868.567 958.123 -8.55334 0.0250291 -0.134771 0.990561 1 178 106 162 255 8.04665 20.6696
-886.097 959.594 -6.8757 0.0220533 -0.127122 0.991642 1 178 106 162 255 8.03146 20.5187
-903.91 958.717 -7.5557 -0.0452588 -0.104974 0.993445 1 178 106 162 255 8.0141 20.1776
-921.917 956.667 -9.41223 -0.0860122 -0.0878042 0.992418 1 178 106 162 255 7.99458 19.9877
-940.671 949.932 -15.9865 -0.0216411 -0.0391916 0.998997 1 178 106 162 255 7.97289 18.7292
-958.247 951.401 -14.3057 0.102889 -0.00810161 0.99466 1 178 106 162 255 7.94908 17.9127
-975.808 952.871 -12.6262 0.226994 -0.00819088 0.973862 1 178 106 162 255 7.92316 17.8669
-992.052 961.37 -3.88234 0.236152 0.0130294 0.971629 1 178 106 162 255 7.89514 17.3604
-1009.49 962.835 -2.20201 0.0656884 0.0519178 0.996489 1 178 106 162 255 7.86505 16.8817
-1027.14 963.131 -1.70341 -0.0771916 0.0504743 0.995738 1 178 106 162 255 7.83292 17.4674
-1045.03 962.259 -2.38566 -0.045802 -0.00952773 0.998905 1 178 106 162 255 7.79877 18.3607
-1062.69 962.555 -1.88674 0.0257055 -0.0462688 0.998598 1 178 106 162 255 7.76263 18.7559
-1080.08 964.019 -0.207617 -0.0573155 -0.0502772 0.997089 1 178 106 162 255 7.72452 19.1953
-1098.3 961.977 -2.06315 -0.223502 -0.0105027 0.974647 1 178 106 162 255 7.68449 19.7518
-1119.27 949.256 -14.641 -0.181294 -0.00478737 0.983417 1 178 106 162 255 7.64255 19.4451
-1136.41 952.042 -11.6441 -0.0211372 -0.0578847 0.9981 1 178 106 162 255 7.59875 19.522
-1154.19 952.34 -11.1419 0.0163327 -0.100095 0.994844 1 178 106 162 255 7.55312 20.1831
-1173.02 948.909 -14.3808 0.0693312 -0.129297 0.989179 1 178 106 162 255 7.50569 20.701
-1190.12 951.695 -11.3829 0.122059 -0.0861523 0.988777 1 178 106 162 255 7.4565 19.4436
-1207.52 953.235 -9.63507 0.0726048 0.0211044 0.997137 1 178 106 162 255 7.4056 17.607
-1224.94 954.699 -7.95494 0.00906429 0.0745155 0.997179 1 178 106 162 255 7.35301 16.9985
-1243.11 953.758 -8.70126 0.0736725 0.0646328 0.995186 1 178 106 162 255 7.29878 16.8425
-1260.47 955.295 -6.95099 0.277923 -0.021251 0.960368 1 178 106 162 255 7.24296 17.7464
-1275.41 963.774 1.75298 0.607326 -0.0527929 0.792697 1 178 106 162 255 7.18558 19.4161
-1288.29 974.209 12.1529 0.985916 -0.0782012 0.147829 1 255 255 255 255 2.85068 43.5271
-1277.21 1052.32 92.0206 0.976072 -0.103889 0.191023 1 166 67 199 255 4.23981 39.5396
-1290.58 1058.9 90.0182 -0.0272425 -0.0759541 0.996724 1 166 67 199 255 0.700457 18.9008
-1360.59 973.427 12.452 -0.709599 0.170918 0.683561 1 178 106 162 255 6.87695 33.9838
-1377.71 974.885 14.1224 -0.145211 0.02954 0.98896 1 178 106 162 255 6.8112 19.2892
-1396.27 972.848 12.2772 -0.0123494 -0.0268206 0.999564 1 178 106 162 255 6.74422 19.0534
-1414.88 970.81 10.4362 -0.00922814 -0.045284 0.998932 1 178 106 162 255 6.67605 19.6409
-1433.02 969.942 9.76013 -0.0245546 -0.0519847 0.998346 1 178 106 162 255 6.60675 19.8376
-1449.63 972.568 12.6024 -0.142905 0.00781838 0.989706 1 178 106 162 255 6.53637 19.952
-1471.54 963.534 3.75405 -0.105237 0.0326578 0.993911 1 178 106 162 255 6.46496 19.1201
-1487.61 967.329 7.75703 0.135759 -0.0518349 0.989385 1 178 106 162 255 6.39257 18.6605
-1501.94 974.621 15.2632 0.249699 -0.107239 0.962367 1 178 106 162 255 6.31924 19.2837
-1518.99 976.083 16.9286 0.312515 -0.038905 0.949116 1 178 106 162 255 6.24503 17.9388
-1532.74 982.606 20.416 0.307353 0.189987 0.932437 1 178 106 162 255 2.468 14.7063
-1549.45 984.938 26.9367 0.299826 0.565846 0.768064 1 178 106 162 255 4.26592 12.7645
-1565.1 989.776 31.2581 0.0358961 0.525164 0.850244 1 178 106 162 255 6.01763 13.6457
-1582.58 990.073 31.7492 -0.092394 0.219163 0.971304 1 178 106 162 255 5.94041 16.4978
-1600.04 990.368 32.2409 -0.0756058 0.0368362 0.996457 1 178 106 162 255 5.86257 18.9139
-1620.08 986 28.0741 -0.0154783 -0.022678 0.999623 1 178 106 162 255 5.78415 19.4942
-1637.6 986.294 28.569 0.0356991 -0.0522637 0.997995 1 178 106 162 255 5.7052 19.567
-1653.78 988.916 31.3949 0.01621 -0.050354 0.9986 1 178 106 162 255 5.62578 19.7991
-1672.63 986.884 29.5602 -0.0264367 -0.0393085 0.998877 1 178 106 162 255 5.54594 20.1072
-1690.15 987.179 30.0533 -0.0205664 -0.023709 0.999507 1 178 106 162 255 5.46573 19.912
-1710.47 982.818 25.8904 0.0534861 -0.0319244 0.998058 1 178 106 162 255 5.38519 19.408
-1726.61 985.438 28.7184 0.0995364 -0.0208161 0.994816 1 178 106 162 255 5.30437 18.6989
-1741.97 989.22 32.7021 -0.0170158 0.0532977 0.998434 1 178 106 162 255 5.22333 18.5159
-1762.42 984.86 28.5447 -0.140429 0.0244174 0.98979 1 178 106 162 255 5.14211 20.9849
-1782.22 981.67 25.5469 -0.203591 -0.0190686 0.97887 1 178 106 162 255 5.06075 23.5214
-1801.34 979.645 23.7211 -0.292211 0.0283304 0.955934 1 178 106 162 255 4.97931 24.7044
-1830.66 962.365 6.64222 -0.192397 0.0224134 0.981061 1 178 106 162 255 4.89783 22.8353
-1848.56 962.518 7.00498 0.1262 -0.0617106 0.990083 1 178 106 162 255 4.81636 19.7372
-1861.56 970.767 14.1546 0.264474 -0.0515855 0.963012 1 178 106 162 255 3.78794 18.2809
-1882.04 967.571 10.9527 0.120163 -0.00799438 0.992722 1 178 106 162 255 2.79216 18.7148
-1894.33 974.148 19.2519 -0.058448 0.0345869 0.997691 1 178 106 162 255 4.57241 20.3071
-1917.07 967.408 12.719 0.00393042 -0.0397113 0.999204 1 178 106 162 255 4.49139 21.0467
-1930.53 973.582 19.0855 0.197789 -0.109491 0.974111 1 178 106 162 255 4.41059 20.0383
-1943.94 979.682 25.3875 0.224239 -0.120532 0.967052 1 178 106 162 255 4.33005 19.9694
-1959.93 981 26.8541 0.121532 -0.123582 0.984864 1 178 106 162 255 3.82483 21.3179
-1979.18 977.924 24.017 0.0702335 -0.0893834 0.993518 1 178 106 162 255 4.1779 21.4715
-1995.97 979.361 25.6537 0.155399 -0.0937155 0.983397 1 178 106 162 255 4.09834 20.3667
543.713 993.048 -12.616 0.215794 0.206205 0.954417 1 93 59 234 255 3.63684 19.2065
521.837 999.992 -5.28068 0.269225 0.147851 0.951661 1 93 59 234 255 3.71297 21.0289
503.2 1002.5 -2.51405 0.253414 0.0635487 0.965268 1 93 59 234 255 3.78965 22.1612
479.245 1012.76 8.23484 0.15369 0.0261349 0.987773 1 93 59 234 255 3.86684 20.7035
463.785 1010.83 6.43563 -0.0344945 0.00839123 0.99937 1 93 59 234 255 3.94453 18.2334
450.505 1005.57 1.21462 -0.0922864 -0.0269698 0.995367 1 93 59 234 255 4.02266 18.2743
434.915 1003.64 -0.586963 0.0295871 0.0120833 0.999489 1 93 59 234 255 4.10121 18.8775
414.974 1008.36 4.45998 0.128833 0.0737227 0.988922 1 93 59 234 255 4.18014 19.0209
395.12 1013.08 9.49879 0.0762405 0.047162 0.995973 1 93 59 234 255 4.25942 18.7805
379.526 1011.14 7.69957 -0.0488026 -0.00601545 0.99879 1 93 59 234 255 4.339 18.2761
363.897 1009.21 5.90382 -0.115968 0.0153579 0.993134 1 93 59 234 255 4.41885 17.2207
349.569 1005.07 1.82421 -0.0430384 0.119124 0.991946 1 93 59 234 255 4.49893 16.4713
335.823 1009.4 1.64392 0.0960307 0.0822953 0.991953 1 93 59 234 255 0.45792 17.9728
73.4237 1348.03 355.255 0.449706 0.843314 0.294253 1 56 145 92 255 4.90132 16.7854
56.9866 1353.43 360.947 0.438817 0.850287 0.290607 1 56 145 92 255 4.9819 16.2707
42.2278 1355.86 363.602 0.432379 0.885908 0.167974 1 56 145 92 255 5.06241 17.8291
21.2862 1370.1 378.377 0.42405 0.902374 0.0768275 1 56 145 92 255 5.1428 19.1614
5.14036 1375.63 384.206 0.318416 0.941207 0.11287 1 56 145 92 255 5.22302 16.1792
-8.87777 1377.18 385.948 0.153617 0.975192 0.159379 1 56 145 92 255 5.30304 13.5779
-22.2062 1377.4 386.324 0.138164 0.979512 0.146514 1 56 145 92 255 5.38279 13.5341
-35.8593 1378.29 387.381 0.231375 0.963126 0.137312 1 56 145 92 255 5.46224 14.4412
-52.0342 1384.48 393.885 0.254593 0.960187 0.114992 1 56 145 92 255 5.54134 14.8792
-65.6413 1385.44 395.016 0.249829 0.963437 0.0968212 1 56 145 92 255 5.62003 15.0128
-80.2398 1388.61 398.413 0.295035 0.953422 0.0627852 1 56 145 92 255 5.69827 16.0387
-96.304 1395.16 405.287 0.311615 0.949954 0.0220012 1 56 145 92 255 5.776 16.872
-112.651 1402.67 413.142 0.231638 0.971702 0.0462601 1 56 145 92 255 5.85318 15.1877
-126.59 1404.88 415.552 0.05775 0.994185 0.0908893 1 56 145 92 255 5.92976 13.074
-137.999 1401.12 411.84 -0.015692 0.994067 0.10763 1 56 145 92 255 6.00568 12.5453
-150.564 1400.02 410.853 0.0413246 0.988795 0.143447 1 56 145 92 255 6.0809 12.4449
-164.733 1402.89 413.941 -0.0105665 0.984785 0.173454 1 56 145 92 255 6.15536 11.857
-177.055 1401.12 412.273 -0.148335 0.979053 0.13947 1 56 145 92 255 6.22902 11.7424
-189.42 1399.35 410.605 -0.162943 0.979268 0.120345 1 56 145 92 255 6.30182 11.8967
-202.902 1400.41 412.979 -0.229504 0.966851 0.111927 1 56 145 92 255 4.4616 11.9057
-213.045 1395.21 405.58 -0.353777 0.932867 0.0678347 1 56 145 92 255 2.57786 12.2333
-174.991 1000.77 3.79836 0.0208327 0.0159713 0.999655 1 178 106 162 255 4.10845 17.5121
-191.587 996.908 -0.946438 -0.00746893 0.151276 0.988463 1 178 106 162 255 6.21925 15.6731
-208.084 994.107 -3.17422 0.152218 0.155696 0.976006 1 178 106 162 255 6.9718 16.2835
-228.448 1006 9.19574 0.104097 0.0512169 0.993248 1 178 106 162 255 7.03192 17.1454
-245.023 1004.01 7.3529 -0.0114743 -0.0100383 0.999884 1 178 106 162 255 7.09061 17.5634
-261.061 999.673 3.10356 0.0618224 -0.0549116 0.996576 1 178 106 162 255 7.14782 18.7612
-279.398 1004.66 8.39569 0.0968964 -0.0722454 0.992669 1 178 106 162 255 7.20351 19.2328
-296.58 1004.95 8.8811 0.0385235 -0.0936746 0.994857 1 178 106 162 255 7.25762 19.3046
-313.506 1004.06 8.1666 0.0128377 -0.0763724 0.996997 1 178 106 162 255 7.31013 18.745
-330.461 1003.18 7.4484 0.00418365 -0.0644997 0.997909 1 178 106 162 255 7.36099 18.4448
-347.445 1002.29 6.7339 -0.0230146 -0.0808206 0.996463 1 178 106 162 255 7.41016 18.7351
-365.095 1004.93 9.62244 -0.175853 -0.1022 0.979097 1 178 106 162 255 7.4576 18.9842
-381.051 998.179 2.90723 -0.29715 -0.0982771 0.94976 1 178 106 162 255 7.50328 19.2078
-396.382 986.745 -8.60359 -0.0318088 -0.0187368 0.999318 1 178 106 162 255 7.54716 17.6712
-415.042 995.24 0.285217 0.308988 0.032754 0.950502 1 178 106 162 255 7.5892 18.5662
-434.354 1009.45 15.0147 0.193223 0.0366727 0.980469 1 178 106 162 255 7.62937 17.361
-451.054 1006.3 11.9749 -0.114934 -0.0276944 0.992987 1 178 106 162 255 7.66764 17.4842
-466.936 996.113 1.74987 -0.155374 -0.0631047 0.985838 1 178 106 162 255 7.70397 18.2768
-484.237 996.404 2.23862 -0.14212 -0.0809995 0.98653 1 178 106 162 255 7.73835 18.6546
-500.562 987.325 -6.85623 -0.102352 -0.0874435 0.990897 1 178 106 162 255 7.77073 18.9059
-517.741 985.274 -8.75887 0.0723695 -0.0256621 0.997048 1 178 106 162 255 7.80111 18.0835
-536.243 998.442 4.9047 0.0889862 0.0123421 0.995956 1 178 106 162 255 7.82944 17.299
-553.272 995.222 1.80038 -0.041509 -0.00812599 0.999105 1 178 106 162 255 7.85571 17.476
-570.377 992.001 -1.29904 0.0255833 -0.0312397 0.999184 1 178 106 162 255 7.87989 18.047
-587.727 992.293 -0.809009 0.155556 -0.047904 0.986665 1 178 106 162 255 7.90197 18.5582
-605.501 1001.94 9.24889 0.0457898 -0.0299771 0.998501 1 178 106 162 255 7.92193 17.9097
-622.502 994.042 1.3697 -0.130325 0.019476 0.99128 1 178 106 162 255 7.93974 17.1104
-639.804 991.992 -0.528442 -0.142597 0.0430972 0.988842 1 178 106 162 255 7.95541 16.847
-657.138 989.946 -2.42942 -0.118221 -0.00399463 0.992979 1 178 106 162 255 7.96891 17.6445
-674.516 985.564 -6.7182 -0.0533772 -0.0423525 0.997676 1 178 106 162 255 7.98023 18.2041
-691.943 988.195 -3.83744 0.0270279 -0.0440499 0.998664 1 178 106 162 255 7.98937 18.1416
-709.348 989.653 -2.1485 -0.0898844 -0.0669269 0.993701 1 178 106 162 255 7.99631 18.716
-726.784 988.779 -2.85316 -0.333424 -0.0618794 0.940744 1 178 106 162 255 8.00105 19.9715
-744.889 971.544 -20.2561 -0.350576 0.0307333 0.93603 1 178 106 162 255 8.00359 18.4476
-762.487 971.837 -19.7571 -0.141463 0.0543425 0.988451 1 178 106 162 255 8.00392 16.9439
-780.164 970.965 -20.4525 -0.0215155 0.0308556 0.999292 1 178 106 162 255 8.00204 17.1085
-797.777 971.262 -19.9568 0.0856682 -0.0249571 0.996011 1 178 106 162 255 7.99796 17.9468
-815.007 976.227 -14.6914 0.154231 -0.0365182 0.98736 1 178 106 162 255 7.99168 18.2225
-832.358 978.858 -11.8146 0.134989 0.0205103 0.990635 1 178 106 162 255 7.9832 17.1332
-849.898 979.152 -11.3191 0.0970992 -0.00388635 0.995267 1 178 106 162 255 7.97254 17.4773
-867.438 979.446 -10.8235 0.0701759 -0.0674165 0.995254 1 178 106 162 255 7.95969 18.7608
-884.842 980.905 -9.13418 0.0337114 -0.0732964 0.99674 1 178 106 162 255 7.94467 18.8914
-902.37 981.199 -8.63897 -0.0370467 -0.0831615 0.995847 1 178 106 162 255 7.9275 19.2611
-920.225 979.165 -10.5287 -0.0839099 -0.0883533 0.992549 1 178 106 162 255 7.90818 19.6755
-937.953 978.293 -11.2221 -0.0386019 -0.0903968 0.995157 1 178 106 162 255 7.88673 19.5091
-955.516 978.583 -10.7217 0.0572659 -0.102211 0.993113 1 178 106 162 255 7.86318 19.4836
-973.28 977.713 -11.4155 0.150939 -0.0952249 0.983946 1 178 106 162 255 7.83754 19.2368
-990.009 982.669 -6.16288 0.178317 -0.0383308 0.983226 1 178 106 162 255 7.80982 18.0731
-1006.64 987.625 -0.915491 0.0616577 0.0101886 0.998045 1 178 106 162 255 7.78006 17.317
-1025.05 983.259 -5.17785 -0.0537145 -0.0171889 0.998408 1 178 106 162 255 7.74828 18.261
-1043.08 981.221 -7.05432 -0.043466 -0.0094772 0.99901 1 178 106 162 255 7.71449 18.1368
-1060.37 982.682 -5.37287 0.030042 0.0265973 0.999195 1 178 106 162 255 7.67874 17.1944
-1077.65 984.138 -3.68677 -0.047419 0.00670449 0.998853 1 178 106 162 255 7.64105 17.8083
-1095.45 983.27 -4.38186 -0.229014 0.00804773 0.97339 1 178 106 162 255 7.60145 19.1412
-1116.56 969.595 -18.1169 -0.16829 0.0180322 0.985573 1 178 106 162 255 7.55996 18.7234
-1132.09 978.034 -9.31116 0.0382393 -0.00903989 0.999228 1 178 106 162 255 7.51663 17.9475
-1150.96 973.676 -13.5594 0.102901 -0.0754127 0.991829 1 178 106 162 255 7.47149 19.0769
-1166.95 979.794 -7.13851 0.0767189 -0.111775 0.990768 1 178 106 162 255 7.42458 19.8668
-1184.2 981.249 -5.45308 -0.00200886 -0.0433759 0.999057 1 178 106 162 255 7.37592 18.7709
-1202.83 978.054 -8.51241 -0.0374729 0.0353544 0.998672 1 178 106 162 255 7.32557 17.5497
-1221.19 976.024 -10.3808 -0.00786403 -0.00125081 0.999968 1 178 106 162 255 7.27355 18.072
-1240.34 971.673 -14.6212 0.0991434 -0.0513664 0.993746 1 178 106 162 255 7.21991 18.6378
-1255.29 980.102 -5.82966 0.277133 -0.0722198 0.958113 1 178 106 162 255 7.16469 18.5555
-1271.87 983.181 -2.634 0.499101 -0.111343 0.859361 1 178 106 162 255 5.68635 19.8803
-1286.5 988.455 2.80121 0.962283 -0.122466 0.242929 1 255 255 255 255 2.81987 39.2717
-1280.6 1097.91 110.618 0.272721 -0.125594 0.95386 1 166 67 199 255 2.07866 18.3946
-1370.86 1000.75 16.5417 -0.0829568 0.0264927 0.996201 1 178 106 162 255 6.7376 18.5774
-1386.82 1004.52 20.5762 0.0558138 -0.0124405 0.998364 1 178 106 162 255 6.67134 17.9488
-1405.18 1002.49 18.7032 0.0230013 -0.0435319 0.998787 1 178 106 162 255 6.60391 18.7751
-1422.07 1003.95 20.3781 -0.0532642 -0.0346491 0.997979 1 178 106 162 255 6.53536 19.3351
-1439.98 1003.08 19.6893 -0.217402 0.0291382 0.975647 1 178 106 162 255 6.46574 20.1157
-1464.88 987.128 3.67418 -0.15139 0.0259568 0.988133 1 178 106 162 255 6.3951 19.577
-1480.24 992.06 8.88268 0.122002 -0.0278742 0.992138 1 178 106 162 255 6.32348 18.164
-1496.64 994.677 11.7341 0.213575 -0.000940178 0.976926 1 178 106 162 255 6.25095 17.2446
-1510.13 1003.08 20.4764 0.10715 0.110637 0.988068 1 178 106 162 255 6.17754 16.0731
-1531.04 996.42 13.9013 0.0862692 0.307879 0.947506 1 178 106 162 255 6.10332 14.51
-1546.35 1000.89 17.434 0.21091 0.301423 0.929872 1 178 106 162 255 3.61699 14.1446
-1561.75 1005.12 23.1301 0.195532 0.339992 0.919877 1 178 106 162 255 5.9526 13.735
-1579.76 1004.25 22.4438 0.0517634 0.294822 0.954149 1 178 106 162 255 5.87622 14.72
-1597.17 1004.54 22.9357 0.0357349 0.218473 0.975188 1 178 106 162 255 5.79921 15.4978
-1613.94 1005.99 24.6047 0.0608848 0.111167 0.991935 1 178 106 162 255 5.72164 16.4435
-1631.34 1006.29 25.0962 0.0481119 0.0725341 0.996205 1 178 106 162 255 5.64355 17.0169
-1648.73 1006.58 25.5877 0.00958235 0.0790988 0.996821 1 178 106 162 255 5.56499 17.3593
-1666.8 1005.71 24.9031 -0.0213556 0.0849082 0.99616 1 178 106 162 255 5.48601 17.7129
-1684.9 1004.85 24.2146 0.00894234 0.056981 0.998335 1 178 106 162 255 5.40666 17.8284
-1702.32 1005.14 24.7068 0.0685965 -0.0111284 0.997582 1 178 106 162 255 5.32699 18.4358
-1717.61 1008.9 28.7287 0.0676621 0.00224812 0.997706 1 178 106 162 255 5.24705 18.2401
-1735.72 1008.04 28.0454 0.00597839 0.0915342 0.995784 1 178 106 162 255 5.16688 17.4066
-1753.11 1008.33 28.537 -0.0623434 0.105315 0.992483 1 178 106 162 255 5.08654 18.0163
-1771.25 1007.47 27.8497 -0.197431 0.12486 0.972333 1 178 106 162 255 5.00606 19.8009
-1792.48 1001.97 22.4815 -0.32116 0.168676 0.931882 1 178 106 162 255 4.9255 21.7557
-1817.68 990.704 11.2481 -0.216702 0.100742 0.971026 1 178 106 162 255 4.8449 21.1837
-1833.7 993.312 14.0871 0.0364686 0.0386356 0.998588 1 178 106 162 255 4.76431 18.6918
-1849.67 995.92 16.9304 0.147825 0.073608 0.986271 1 178 106 162 255 4.68376 17.2191
-1867.21 996.213 17.43 0.108535 0.100923 0.988956 1 178 106 162 255 4.60331 17.1249
-1883.1 998.818 20.2634 0.0222571 0.0620654 0.997824 1 178 106 162 255 4.52299 18.4239
-1899.54 1004.91 12.6536 -0.0340999 0.0433932 0.998476 1 178 106 162 255 1.7673 19.2953
-1921.52 994.784 16.57 0.155431 -0.0384714 0.987097 1 178 106 162 255 4.36293 18.6848
-1935.66 999.699 21.7507 0.272438 -0.0542645 0.960642 1 178 106 162 255 4.28326 18.114
-1946.7 1007.43 29.7354 0.221651 -0.0579947 0.9734 1 178 106 162 255 3.7835 18.3991
-1961 1010.63 33.2006 0.096936 -0.0269075 0.994927 1 178 106 162 255 4.13275 19.1628
-1981.07 1007.48 30.2046 0.111961 -0.0780838 0.99064 1 178 106 162 255 4.05405 20.0403
-1990.05 1024.48 28.4725 0.204766 -0.132629 0.969784 1 178 106 162 255 1.97412 19.9841
536.255 1011.22 -17.1682 0.280103 0.331996 0.900734 1 93 59 234 255 3.59656 18.9615
506.615 1029.17 1.73888 0.389636 0.277966 0.878019 1 93 59 234 255 3.67185 21.3976
488.193 1031.67 4.5166 0.289204 0.178835 0.940414 1 93 59 234 255 3.74768 20.3839
467.52 1037.47 10.7473 0.103989 0.12973 0.986081 1 93 59 234 255 3.82402 17.9306
455.23 1031.12 4.31987 -0.0272183 0.0533314 0.998206 1 93 59 234 255 3.90084 17.3892
437.719 1031.99 6.39712 -0.0489044 -0.0670185 0.996552 1 93 59 234 255 3.5803 19.1704
422.223 1030.58 4.12461 -0.0175197 -0.0961747 0.99521 1 93 59 234 255 4.05579 20.1069
406.07 1029.77 3.45322 0.0544064 -0.0109813 0.998458 1 93 59 234 255 4.13384 19.1785
387.757 1032.25 6.22778 0.0782817 0.0616591 0.995023 1 93 59 234 255 4.21224 18.1428
370.197 1033.64 7.85123 0.00371128 0.0252684 0.999674 1 93 59 234 255 4.29094 17.8634
353.333 1033.92 8.32849 -0.0715228 -0.0394893 0.996657 1 93 59 234 255 4.36991 18.0961
339.857 1028.69 3.0662 -0.0252599 -0.0427384 0.998767 1 93 59 234 255 4.4491 18.638
320.953 1032.28 6.98576 0.068966 0.00879825 0.99758 1 93 59 234 255 4.52848 18.605
304.49 1037.23 12.1896 0.149383 0.133912 0.97967 1 93 59 234 255 0.921602 17.5301
74.7865 1357.36 342.702 0.224332 0.744704 0.628532 1 255 255 255 255 0.484704 11.7468
56.8541 1359.84 348.627 0.363324 0.856425 0.366786 1 56 145 92 255 4.43405 14.5832
42.4051 1361.63 351.065 0.266192 0.953975 0.138109 1 56 145 92 255 5.00634 15.5817
28.1171 1363.25 352.9 0.351777 0.935981 0.0138664 1 56 145 92 255 5.08584 19.3183
8.05253 1376.02 366.344 0.348839 0.937106 0.0120142 1 56 145 92 255 5.16517 18.9891
-8.08026 1381.6 372.297 0.197001 0.979628 0.0389926 1 56 145 92 255 5.2443 15.7644
-19.4519 1377.86 368.55 0.154863 0.983178 0.0968438 1 56 145 92 255 5.32318 14.434
-34.7814 1382.05 373.048 0.250633 0.951146 0.180292 1 56 145 92 255 5.40175 14.2221
-49.0831 1384.25 375.487 0.281664 0.934064 0.219523 1 56 145 92 255 5.47997 13.995
-64.2683 1388.43 379.982 0.258393 0.940794 0.219408 1 56 145 92 255 5.55778 13.6884
-79.4488 1392.76 384.627 0.234504 0.957749 0.166506 1 56 145 92 255 5.63516 13.9827
-92.6951 1392.98 385.001 0.247632 0.966613 0.0658682 1 56 145 92 255 5.71203 15.3987
-108.522 1399.06 391.473 0.23761 0.971346 0.00527868 1 56 145 92 255 5.78835 16.2187
-123.12 1402.58 395.275 0.158313 0.987121 0.0229869 1 56 145 92 255 5.86408 14.934
-136.55 1403.46 396.331 0.1062 0.987701 0.114755 1 56 145 92 255 5.93916 13.2518
-149.967 1404.34 397.386 0.118868 0.972878 0.198439 1 56 145 92 255 6.01355 12.431
-164.687 1408.51 401.87 -0.0184041 0.979056 0.202756 1 56 145 92 255 6.08719 11.6539
-176.76 1406.1 399.499 -0.227079 0.964666 0.133624 1 56 145 92 255 6.16003 11.6982
-187.083 1398.93 392.185 -0.217797 0.972269 0.0851914 1 56 145 92 255 6.23202 12.2483
-201.043 1401.2 394.687 -0.187223 0.978923 0.0815868 1 56 145 92 255 6.30312 12.4035
-147.756 1138.85 117.25 0.0397936 -0.445699 0.894291 1 255 255 255 255 0.651054 35.2581
-284.873 1034.81 16.1914 0.13168 -0.0466811 0.990192 1 178 106 162 255 7.12373 18.6336
-301.83 1035.1 16.6704 0.0626647 -0.0691212 0.995638 1 178 106 162 255 7.17724 18.4643
-318.788 1035.38 17.1495 0.0238586 -0.123815 0.992018 1 178 106 162 255 7.22917 19.522
-335.517 1034.57 16.4942 0.0137548 -0.128374 0.991631 1 178 106 162 255 7.27947 19.6959
-352.702 1035.95 18.1076 -0.0228422 -0.0927319 0.995429 1 178 106 162 255 7.32809 18.7448
-369.463 1035.14 17.4517 -0.192284 -0.108627 0.975309 1 178 106 162 255 7.37501 18.8286
-385.268 1028.86 11.1227 -0.304177 -0.15206 0.940401 1 178 106 162 255 7.42018 20.1751
-399.916 1014.71 -3.37183 -0.0878265 -0.141582 0.986023 1 178 106 162 255 7.46357 19.7708
-418.492 1023.96 6.41389 0.190951 -0.0535748 0.980136 1 178 106 162 255 7.50514 18.9345
-436.061 1027.53 10.2956 0.134554 0.0411756 0.99005 1 178 106 162 255 7.54487 16.7919
-452.971 1026.72 9.64535 -0.0240107 0.0248348 0.999403 1 178 106 162 255 7.58272 16.5017
-470.04 1027.01 10.1276 -0.026446 -0.0375025 0.998947 1 178 106 162 255 7.61865 17.4735
-487.24 1028.39 11.7451 -0.0197076 -0.0784116 0.996726 1 178 106 162 255 7.65264 18.2822
-504.398 1029.77 13.3575 -0.0792092 -0.14218 0.986666 1 178 106 162 255 7.68467 19.6554
-520.737 1022.41 5.91212 -0.0597864 -0.14375 0.987806 1 178 106 162 255 7.71471 19.8462
-537.776 1021.6 5.26627 -0.000729406 -0.0736938 0.997281 1 178 106 162 255 7.74272 18.3535
-554.912 1021.88 5.75172 -0.00901074 -0.0421464 0.999071 1 178 106 162 255 7.7687 17.7956
-572.047 1022.1 6.16003 0.0580334 -0.0155404 0.998194 1 178 106 162 255 7.79262 17.3661
-589.47 1027.92 12.3698 0.0994533 0.041434 0.994179 1 178 106 162 255 7.81445 16.4812
-606.594 1029.3 13.9854 -0.0396182 0.110294 0.993109 1 178 106 162 255 7.83419 15.3894
-623.458 1023.03 7.68844 -0.130797 0.0879106 0.987504 1 178 106 162 255 7.85181 15.8688
-640.554 1021.07 5.8356 -0.0670267 0.0390568 0.996986 1 178 106 162 255 7.8673 16.4677
-657.718 1022.52 7.52538 -0.0276393 -0.00943968 0.999573 1 178 106 162 255 7.88065 17.1446
-674.863 1021.72 6.88045 -0.0392566 -0.0592083 0.997474 1 178 106 162 255 7.89185 18.0568
-692.053 1017.5 2.69576 -0.0072426 -0.0625252 0.998017 1 178 106 162 255 7.90088 18.1002
-709.224 1020.04 5.51766 -0.102657 -0.0456766 0.993668 1 178 106 162 255 7.90775 17.8995
-726.448 1019.09 4.72003 -0.389828 -0.0589892 0.918996 1 178 106 162 255 7.91244 19.9623
-744.637 993.947 -21.1195 -0.373588 -0.0696546 0.924976 1 178 106 162 255 7.91494 20.5148
-761.861 998.888 -15.8113 -0.117899 -0.0491883 0.991807 1 178 106 162 255 7.91527 18.3809
-779.471 995.694 -18.929 -0.0024203 -0.0557705 0.998441 1 178 106 162 255 7.91342 18.357
-796.999 994.827 -19.6413 0.0776569 -0.0678611 0.994668 1 178 106 162 255 7.90938 18.5067
-814.085 999.764 -14.3358 0.101811 -0.0545879 0.993305 1 178 106 162 255 7.90317 18.2278
-831.699 997.73 -16.2456 0.112968 -0.020839 0.99338 1 178 106 162 255 7.89479 17.5796
-848.789 1001.51 -12.1511 0.168417 -0.020204 0.985509 1 178 106 162 255 7.88424 17.583
-865.417 1008.77 -4.4532 0.129357 -0.0468613 0.99049 1 178 106 162 255 7.87153 17.8608
-883.156 1005.58 -7.56503 0.056641 -0.0567355 0.996781 1 178 106 162 255 7.85668 18.1276
-900.053 1009.35 -3.47799 -0.0112926 -0.0747116 0.997141 1 178 106 162 255 7.8397 18.635
-917.877 1006.16 -6.58558 -0.0754266 -0.097833 0.992341 1 178 106 162 255 7.8206 19.4198
-936.121 1000.65 -12.0911 -0.0202439 -0.118495 0.992748 1 178 106 162 255 7.79939 19.7779
-952.976 1004.42 -8.00216 0.0770494 -0.128281 0.98874 1 178 106 162 255 7.77609 19.7405
-969.969 1007.03 -5.10933 0.108831 -0.107763 0.988202 1 178 106 162 255 7.75073 19.1949
-986.681 1010.8 -1.0276 0.0935785 -0.0474238 0.994482 1 178 106 162 255 7.72333 17.9695
-1004.68 1007.62 -4.13709 0.0679993 -0.0141303 0.997585 1 178 106 162 255 7.69389 17.4591
-1020.87 1013.71 2.34885 -0.0274238 -0.0362403 0.998967 1 178 106 162 255 7.66246 18.0574
-1039.16 1009.35 -1.9491 -0.112165 -0.0301592 0.993232 1 178 106 162 255 7.62905 18.54
-1058.58 1000.38 -11.0462 0.0013443 -0.0157618 0.999875 1 178 106 162 255 7.5937 17.8158
-1074.12 1008.78 -2.172 0.0106862 -0.0363325 0.999283 1 178 106 162 255 7.55642 18.0265
-1092.05 1006.75 -4.0726 -0.209044 -0.043644 0.976932 1 178 106 162 255 7.51726 19.7587
-1112.41 995.457 -15.5417 -0.203738 -0.0249568 0.978707 1 178 106 162 255 7.47623 19.4588
-1130.21 994.595 -16.2474 0.0507201 -0.0105145 0.998657 1 178 106 162 255 7.43339 17.721
-1145.82 1001.84 -8.57615 0.157171 -0.0350396 0.98695 1 178 106 162 255 7.38874 17.6899
-1162.6 1004.45 -5.69222 0.0550066 -0.0113178 0.998422 1 178 106 162 255 7.34235 17.6203
-1180.7 1002.42 -7.59115 -0.0524293 0.0177648 0.998467 1 178 106 162 255 7.29423 17.6378
-1200.28 995.771 -14.2676 0.0135679 -0.00923802 0.999865 1 178 106 162 255 7.24443 17.8521
-1214.85 1005.32 -4.21603 0.0911769 -0.0647194 0.993729 1 178 106 162 255 7.19299 18.4186
-1232.28 1005.62 -3.72484 0.0933023 -0.0874743 0.991788 1 178 106 162 255 7.13995 18.9395
-1250.49 1003.59 -5.6169 0.210839 -0.0718934 0.974873 1 178 106 162 255 7.08534 18.2756
-1263.63 1012.5 4.72142 0.342661 -0.0306959 0.938958 1 178 106 162 255 4.21753 17.3575
-1280.59 1109.15 103.142 0.293995 0.227908 0.928238 1 166 67 199 255 3.42607 13.5257
-1299.6 1101.84 96.8535 -0.821576 0.181148 0.540554 1 166 67 199 255 4.75326 41.7986
-1366.75 1020.03 11.7167 -0.365668 0.144856 0.919404 1 178 106 162 255 3.33149 20.0448
-1384.16 1019.8 12.6097 0.0549846 0.105143 0.992936 1 178 106 162 255 6.59745 16.0873
-1400.47 1022.4 15.4803 0.070486 0.0936205 0.99311 1 178 106 162 255 6.53077 16.1194
-1417.75 1022.69 15.9684 -0.0356148 0.107422 0.993575 1 178 106 162 255 6.46298 16.5658
-1434.51 1024.13 17.6513 -0.198921 0.111513 0.97365 1 178 106 162 255 6.39413 18.0639
-1457.13 1012.88 6.24252 -0.153053 0.045553 0.987168 1 178 106 162 255 6.32427 18.8625
-1472.87 1016.63 10.299 0.0401914 0.0118793 0.999121 1 178 106 162 255 6.25345 17.6613
-1490.78 1015.77 9.60156 0.109946 0.0756276 0.991056 1 178 106 162 255 6.18172 16.4053
-1507 1018.37 12.4677 0.0361247 0.140071 0.989482 1 178 106 162 255 6.10913 16.0812
-1526.66 1014.04 8.20774 0.0338621 0.112541 0.99307 1 178 106 162 255 6.03572 16.5906
-1544.05 1014.33 8.69897 0.169608 0.0910885 0.981293 1 178 106 162 255 5.96155 16.0313
-1556.57 1023.85 18.6922 0.172992 0.130772 0.976203 1 178 106 162 255 5.88668 15.4423
-1576.33 1019.53 14.4264 0.0709417 0.107561 0.991664 1 178 106 162 255 5.81114 16.2516
-1593.67 1019.82 14.9202 0.0993593 0.0787163 0.991933 1 178 106 162 255 5.73499 16.4562
-1608.44 1024.72 20.1554 0.133507 0.0448169 0.990034 1 178 106 162 255 5.65827 16.6944
-1625.07 1026.16 21.8312 0.0960595 0.0281625 0.994977 1 178 106 162 255 5.58104 17.1366
-1641.69 1027.61 23.5053 0.0325104 0.00393168 0.999464 1 178 106 162 255 5.50335 18.0724
-1660.3 1025.59 21.6209 0.000535825 -0.0121018 0.999927 1 178 106 162 255 5.42525 18.7714
-1677.59 1025.88 22.1093 0.0520037 -0.021513 0.998415 1 178 106 162 255 5.34678 18.541
-1693.48 1028.48 24.9693 0.0887483 -0.0544558 0.994564 1 178 106 162 255 5.268 18.7472
-1710.03 1029.92 26.6418 -0.000423254 -0.0343334 0.99941 1 178 106 162 255 5.18894 19.2633
-1729.46 1026.75 23.5748 -0.0877689 0.10186 0.990919 1 178 106 162 255 5.10966 18.0768
-1746.01 1028.19 25.2483 -0.114503 0.235585 0.965085 1 178 106 162 255 5.0302 16.7538
-1763.29 1028.48 25.7365 -0.22053 0.299015 0.928416 1 178 106 162 255 4.95062 17.5267
-1785.14 1021.87 19.1239 -0.324028 0.30068 0.896994 1 178 106 162 255 4.87095 19.4534
-1809.45 1011.81 8.96256 -0.233751 0.243565 0.941295 1 178 106 162 255 4.79124 18.8736
-1827.7 1010.95 8.27639 -0.00897368 0.164693 0.986304 1 178 106 162 255 4.71154 17.0195
-1845.17 1011.24 8.76962 0.121813 0.118886 0.985407 1 178 106 162 255 4.63189 16.4211
-1861.84 1012.69 10.4509 0.149651 0.102187 0.983444 1 178 106 162 255 4.55233 16.3694
-1875.99 1017.57 15.6669 0.105643 0.088485 0.990459 1 178 106 162 255 4.4729 16.8889
-1893.33 1019.1 16.2279 0.0562649 0.0765479 0.995477 1 178 106 162 255 3.07555 17.5115
-1911.65 1017.01 15.4668 0.128243 0.0102685 0.99169 1 178 106 162 255 4.31461 17.9632
-1926.51 1020.75 19.5057 0.230514 -0.00047461 0.973069 1 178 106 162 255 4.23582 17.2717
-1939.26 1026.02 25.0673 0.241839 0.0609546 0.9684 1 178 106 162 255 3.7416 16.2806
-1956.88 1024.74 23.9731 0.218042 0.0743057 0.973106 1 178 106 162 255 4.08698 16.3163
-1968.94 1031.84 31.4589 0.242469 -0.0343278 0.969552 1 178 106 162 255 4.00915 17.7813
-1980 1040.66 39.4215 0.197176 -0.0354251 0.979728 1 178 106 162 255 2.35438 17.8815
528.79 1029.3 -21.551 0.345954 0.423262 0.837356 1 93 59 234 255 3.55576 18.7878
503.195 1041.67 -8.2911 0.435014 0.382054 0.815351 1 93 59 234 255 3.63019 20.9466
479.018 1053.15 0.349243 0.273314 0.286945 0.91813 1 93 59 234 255 1.48207 18.4154
463.132 1052.47 3.31993 0.174289 0.331585 0.927187 1 93 59 234 255 3.40257 16.3537
449.993 1058.28 8.06216 0.215729 0.376535 0.900934 1 93 59 234 255 0.763723 16.1279
421.599 1064.13 14.5452 0.187651 0.059054 0.980459 1 93 59 234 255 1.57319 19.6608
410.272 1056.25 8.00315 0.0162338 -0.113046 0.993457 1 93 59 234 255 4.00978 20.6226
395.725 1053.24 4.99443 -0.0261605 -0.132848 0.990791 1 93 59 234 255 4.08695 20.5242
378.992 1053.52 5.46719 0.00293704 -0.0577136 0.998329 1 93 59 234 255 4.16446 19.1108
361.557 1054.9 7.09907 0.00436381 -0.0225578 0.999736 1 93 59 234 255 4.24226 18.3075
345.525 1054.08 6.41263 -0.0343695 -0.0528172 0.998013 1 93 59 234 255 4.32034 18.575
328.792 1054.36 6.88539 -0.0258408 -0.0385205 0.998924 1 93 59 234 255 4.39863 18.4308
312.059 1054.64 7.35814 0.00725818 0.00726196 0.999947 1 93 59 234 255 4.47711 17.8059
295.325 1054.93 7.83088 -0.00242843 0.0276466 0.999615 1 93 59 234 255 4.55574 17.3477
281.822 1059.15 7.57324 0.0547526 0.113537 0.992005 1 255 255 255 255 0.463446 16.437
14.7058 1369.32 340.822 0.366204 0.9269 0.0821698 1 56 145 92 255 5.10658 18.0686
-1.86295 1375.45 347.443 0.28488 0.955918 0.0711683 1 56 145 92 255 5.18481 16.7057
-16.4053 1377.8 350.055 0.289858 0.947486 0.1351 1 56 145 92 255 5.26279 15.582
-33.0619 1384.52 357.285 0.356638 0.907738 0.220955 1 56 145 92 255 5.34047 15.1779
-49.3032 1390.65 363.896 0.326912 0.898392 0.293293 1 56 145 92 255 5.4178 13.8219
-63.5644 1392.84 366.348 0.228694 0.926867 0.297685 1 56 145 92 255 5.49474 12.7588
-78.3884 1396.35 370.186 0.158941 0.958572 0.236385 1 56 145 92 255 5.57123 12.7115
-91.3672 1395.91 369.868 0.167605 0.970575 0.172893 1 56 145 92 255 5.64723 13.3429
-105.517 1398.1 372.32 0.204896 0.973907 0.0975859 1 56 145 92 255 5.72269 14.5303
-120.348 1401.97 376.536 0.209212 0.976215 0.0568803 1 56 145 92 255 5.79756 15.0946
-135.046 1405.69 380.596 0.199952 0.976134 0.0847434 1 56 145 92 255 5.87179 14.4546
-149.077 1407.96 383.117 0.150743 0.981185 0.120637 1 56 145 92 255 5.94533 13.5286
-163.325 1410.87 386.332 -0.0495554 0.993928 0.0982451 1 56 145 92 255 6.01813 12.6083
-175.182 1407.81 383.25 -0.264493 0.959369 0.0982552 1 56 145 92 255 6.09015 12.0899
-185.111 1399.51 374.643 -0.24296 0.957656 0.154483 1 56 145 92 255 6.16133 11.6894
-199.229 1402.38 377.892 -0.19302 0.964543 0.18 1 56 145 92 255 4.98529 11.5247
-156.006 1163.05 125.076 0.232934 0.340823 0.910814 1 132 182 100 255 1.93101 13.6448
-170.221 1165.61 123.785 0.0511653 0.362948 0.930381 1 255 255 255 255 0.650295 12.4803
-185.925 1165.85 124.173 -0.0763577 0.505531 0.859397 1 255 255 255 255 0.656808 11.5127
-198.653 1156.67 114.591 -0.0966454 0.590375 0.801295 1 255 255 255 255 0.663203 11.3383
-386.74 1047.32 7.09616 -0.23849 -0.158034 0.9582 1 178 106 162 255 2.9344 21.3945
-403.495 1042.77 2.5096 -0.0886493 -0.152447 0.984328 1 178 106 162 255 7.3789 19.8306
-420.987 1046.31 6.42393 0.086914 -0.111673 0.989937 1 178 106 162 255 7.42001 19.3608
-437.769 1045.51 5.75682 0.0530269 -0.0730096 0.995921 1 178 106 162 255 7.45928 18.2349
-454.726 1045.8 6.23585 -0.0335012 -0.0532544 0.998019 1 178 106 162 255 7.4967 17.5615
-471.554 1044.99 5.5723 -0.0265148 0.00330613 0.999643 1 178 106 162 255 7.53222 16.5989
-488.641 1046.37 7.19397 0.0063795 0.0529831 0.998575 1 178 106 162 255 7.56583 15.9605
-505.598 1046.65 7.67305 -0.00604679 0.0307637 0.999508 1 178 106 162 255 7.5975 16.2417
-522.555 1046.93 8.15209 -0.0234955 -0.0557468 0.998168 1 178 106 162 255 7.62719 17.6278
-539.329 1045.04 6.34908 -0.0592041 -0.069314 0.995837 1 178 106 162 255 7.65489 17.8651
-556.393 1046.42 7.96648 -0.125524 0.00100312 0.99209 1 178 106 162 255 7.68057 16.67
-572.875 1039.1 0.459143 -0.0918913 0.12606 0.987758 1 178 106 162 255 7.70422 15.0378
-589.932 1039.38 0.943054 0.00445737 0.260369 0.965499 1 178 106 162 255 7.72581 13.8342
-606.979 1039.67 1.42471 -0.0206329 0.30791 0.951192 1 178 106 162 255 7.74532 13.4229
-623.987 1038.86 0.766895 -0.0557844 0.243278 0.968351 1 178 106 162 255 7.76274 13.9975
-641.045 1039.15 1.24885 -0.0251109 0.188604 0.981732 1 178 106 162 255 7.77805 14.499
-658.084 1038.35 0.588525 0.00738277 0.176736 0.984231 1 178 106 162 255 7.79125 14.5612
-675.161 1039.72 2.21277 0.0158511 0.135413 0.990662 1 178 106 162 255 7.80232 14.9828
-692.219 1040.01 2.69473 0.00742341 0.0842121 0.99642 1 178 106 162 255 7.81125 15.5653
-709.292 1039.21 2.0352 -0.0999502 0.0920168 0.990728 1 178 106 162 255 7.81804 15.6242
-726.361 1039.5 2.51743 -0.329642 0.0513889 0.942706 1 178 106 162 255 7.82268 17.1476
-743.914 1027.78 -9.59347 -0.342309 -0.0523851 0.938126 1 178 106 162 255 7.82516 19.4106
-761.399 1022.29 -15.1748 -0.165835 -0.0322254 0.985627 1 178 106 162 255 7.82548 17.954
-778.575 1023.73 -13.4753 -0.00215392 -0.0335 0.999436 1 178 106 162 255 7.82364 17.51
-795.988 1021.71 -15.4121 0.0739951 -0.0582201 0.995558 1 178 106 162 255 7.81966 17.9985
-812.964 1025.47 -11.2873 0.0872358 -0.0512523 0.994868 1 178 106 162 255 7.81352 17.811
-830.297 1024.6 -12.0112 0.0761866 -0.0579908 0.995406 1 178 106 162 255 7.80523 17.9233
-847.538 1024.89 -11.5255 0.125597 -0.0360683 0.991425 1 178 106 162 255 7.7948 17.5291
-864.13 1030.96 -4.98293 0.139491 0.0284266 0.989815 1 178 106 162 255 7.78224 16.4655
-881.312 1031.24 -4.49753 0.0963788 0.0297445 0.9949 1 178 106 162 255 7.76756 16.4184
-898.355 1032.61 -2.87373 0.0390967 -0.0133855 0.999146 1 178 106 162 255 7.75076 17.138
-915.525 1032.9 -2.38859 -0.0182592 -0.0657576 0.997669 1 178 106 162 255 7.73188 18.18
-932.856 1032.11 -3.04139 -0.0129387 -0.0820045 0.996548 1 178 106 162 255 7.71091 18.529
-950.037 1032.4 -2.55597 0.0261067 -0.0507708 0.998369 1 178 106 162 255 7.68788 17.8316
-967.42 1031.53 -3.2785 0.0388413 0.00102645 0.999245 1 178 106 162 255 7.66281 17.0193
-984.829 1030.66 -4.00286 0.0531075 0.0455971 0.997547 1 178 106 162 255 7.63571 16.3675
-1001.58 1033.26 -1.0998 0.0669936 0.0548791 0.996243 1 178 106 162 255 7.60661 16.1743
-1018.76 1033.55 -0.614404 9.24989e-05 0.080958 0.996718 1 178 106 162 255 7.57554 16.0724
-1035.97 1033.77 -0.20293 -0.0772837 0.0577287 0.995336 1 178 106 162 255 7.54251 16.6141
-1053.92 1030.67 -3.26704 0.0147142 0.021429 0.999662 1 178 106 162 255 7.50755 16.692
-1070.05 1035.5 1.97374 0.037863 0.0448237 0.998277 1 178 106 162 255 7.4707 16.3408
-1086.7 1037.94 4.72588 -0.214364 0.0565561 0.975115 1 178 106 162 255 7.43198 17.5511
-1107.64 1023.46 -10.2554 -0.262445 0.0388808 0.964163 1 178 106 162 255 7.39142 18.5257
-1125.25 1022.6 -10.9732 -0.027975 0.0112663 0.999545 1 178 106 162 255 7.34906 17.3815
-1142.24 1024.04 -9.27792 0.109214 0.00726367 0.993992 1 178 106 162 255 7.30493 16.9717
-1159.54 1024.33 -8.78917 0.0643126 0.0208998 0.997711 1 178 106 162 255 7.25905 16.8057
-1176.5 1025.77 -7.09082 0.0075162 -0.000827515 0.999971 1 178 106 162 255 7.21149 17.3403
-1194.51 1023.76 -9.01221 0.0355206 -0.0548928 0.99786 1 178 106 162 255 7.16225 18.2413
-1211.44 1025.2 -7.32286 0.077065 -0.0409672 0.996184 1 178 106 162 255 7.11139 17.8793
-1228.37 1026.64 -5.6254 0.0885611 -0.0157375 0.995946 1 178 106 162 255 7.05895 17.4681
-1245.27 1028.08 -3.93258 0.151416 -0.0132793 0.988381 1 178 106 162 255 7.00496 17.1851
-1261.73 1030.67 -1.0351 0.407098 0.0036688 0.913377 1 178 106 162 255 6.94947 16.787
-1277.17 1037.05 4.28055 0.957341 -0.0882883 0.275144 1 178 106 162 255 4.82476 33.5643
-1272.33 1096.54 66.2963 0.973483 0.203104 -0.105264 1 166 67 199 255 4.10049 39.0976
-1278.32 1118.87 90.3264 0.73783 0.48086 0.473689 1 166 67 199 255 2.03232 14.0168
-1293.06 1126.98 100.584 -0.833234 0.313501 0.455453 1 166 67 199 255 4.69934 38.228
-1329.05 1072.86 35.9371 -0.799118 0.0941594 0.593719 1 166 67 199 255 0.665098 44.8983
-1361.95 1040.39 10.2244 -0.293881 0.0277542 0.955439 1 178 106 162 255 6.58739 20.815
-1379.12 1040.68 10.7095 -0.0120699 0.0266701 0.999571 1 178 106 162 255 6.52261 17.3394
-1396.75 1039.89 10.0642 0.0450815 0.0392971 0.99821 1 178 106 162 255 6.45668 16.7931
-1413.46 1041.26 11.6758 -0.00881922 0.0726598 0.997318 1 178 106 162 255 6.38966 16.7633
-1430.63 1041.54 12.1648 -0.1259 0.0506343 0.99075 1 178 106 162 255 6.32159 18.0721
-1452.06 1032.71 3.12549 -0.109128 -0.0193775 0.993839 1 178 106 162 255 6.25253 19.2505
-1467.72 1036.37 7.14065 0.00290726 -0.0442311 0.999017 1 178 106 162 255 6.18251 18.6385
-1486.07 1034.36 5.23016 0.0645337 -0.0266478 0.99756 1 178 106 162 255 6.11159 17.948
-1501.64 1038.03 9.23826 0.0828497 -0.0254133 0.996238 1 178 106 162 255 6.03982 17.7721
-1518.23 1039.54 10.9962 0.0771003 -0.0716432 0.994446 1 178 106 162 255 5.96725 18.6812
-1534.33 1041.98 13.7305 0.101169 -0.0730245 0.992186 1 178 106 162 255 5.89393 18.5194
-1553.26 1038.96 10.7757 0.161273 -0.058181 0.985193 1 178 106 162 255 5.8199 17.9923
-1565.08 1049.22 21.6583 0.117606 -0.0723229 0.990423 1 178 106 162 255 5.74521 18.434
-1584.61 1045.14 17.5798 0.0750893 -0.0431853 0.996241 1 178 106 162 255 5.66993 18.4282
-1599.31 1049.8 22.6241 0.112648 -0.0169744 0.99349 1 178 106 162 255 5.59408 17.4887
-1617.66 1047.93 20.8687 0.138034 -0.0293608 0.989992 1 178 106 162 255 5.51773 17.5464
-1631.66 1053.59 26.96 0.101428 -0.0439176 0.993873 1 178 106 162 255 5.44092 17.971
-1648.11 1054.95 28.5665 0.00782682 -0.0381445 0.999242 1 178 106 162 255 5.36371 18.7933
-1667.13 1052.02 25.6891 0.0231457 -0.0223925 0.999481 1 178 106 162 255 5.28613 18.4629
-1684.23 1052.3 26.1711 0.110885 -0.0317844 0.993325 1 178 106 162 255 5.20823 17.9165
-1695.96 1061.19 35.6063 -0.0517451 0.0243079 0.998364 1 178 106 162 255 5.13007 18.4351
-1719.8 1050.73 24.8993 -0.246946 0.136266 0.959401 1 178 106 162 255 5.05169 19.6053
-1741.92 1043.29 17.3204 -0.229857 0.1954 0.953407 1 178 106 162 255 4.97314 18.6628
-1762.82 1037.92 11.9064 -0.20627 0.166825 0.964169 1 178 106 162 255 4.89446 19.0093
-1780.85 1037.07 11.1991 -0.276493 0.16789 0.946237 1 178 106 162 255 4.81569 20.3486
-1805.1 1027.06 0.949036 -0.198642 0.148829 0.968706 1 178 106 162 255 4.73689 19.3568
-1821.7 1028.49 2.63195 0.0292957 0.0301482 0.999116 1 178 106 162 255 4.65809 18.1321
-1837.48 1031.07 5.51415 0.130763 -0.0269079 0.991048 1 178 106 162 255 4.57934 18.1822
-1852.4 1034.79 9.58309 0.140931 -0.0153779 0.9899 1 178 106 162 255 4.50068 17.9182
-1870.52 1033.94 8.87433 0.123095 -0.0454662 0.991353 1 178 106 162 255 4.42216 18.5351
-1885.36 1037.67 12.9416 0.0938544 -0.0436453 0.994629 1 178 106 162 255 4.3438 18.9522
-1902.65 1037.95 13.4316 0.121716 -0.0263951 0.992214 1 178 106 162 255 4.26566 18.3344
-1916.56 1041.59 17.3819 0.146791 -0.0150848 0.989052 1 178 106 162 255 3.76899 17.7866
-1934.24 1041.5 17.2825 0.27259 -0.0251987 0.9618 1 178 106 162 255 2.05508 17.0992
-1947.84 1044.45 20.4216 0.204572 0.0917881 0.974538 1 178 106 162 255 3.23404 16.1126
-1961.12 1051.27 28.0011 0.306519 0.0424004 0.95092 1 178 106 162 255 3.16478 15.8942
-1976.24 1052.53 29.6289 0.227211 0.182103 0.956668 1 178 106 162 255 1.93973 14.8692
523.728 1044 -29.2701 0.411081 0.378397 0.829354 1 93 59 234 255 3.51447 20.4423
495.844 1059.59 -12.3917 0.441806 0.319085 0.838446 1 93 59 234 255 3.58804 21.8969
474.606 1075.05 -0.209839 -0.0698614 -0.0293521 0.997109 1 93 59 234 255 0.366214 17.5805
463.133 1061.91 -12.6679 0.0925099 0.271388 0.958014 1 93 59 234 255 1.49469 15.9248
440.391 1068.09 -2.78331 0.270395 0.222992 0.936569 1 93 59 234 255 3.8118 18.6277
417.18 1081.42 7.48203 0.381691 0.246303 0.890868 1 93 59 234 255 1.55492 20.3237
396.729 1084.15 14.7722 0.14071 0.0212443 0.989823 1 93 59 234 255 3.96321 19.2656
382.184 1082.79 13.1973 -0.000366003 -0.0495806 0.99877 1 93 59 234 255 3.23159 18.6374
367.025 1079.61 10.2448 -0.0657966 -0.0943322 0.993364 1 93 59 234 255 4.1161 18.7575
353.069 1075.81 6.34893 -0.0207782 -0.0741699 0.997029 1 93 59 234 255 4.193 18.8569
334.567 1079.14 10.0924 -0.0543001 -0.103786 0.993116 1 93 59 234 255 4.27016 18.9681
321.198 1074.26 5.02721 -0.0801406 -0.10995 0.990701 1 93 59 234 255 4.34755 18.781
307.802 1069.22 -0.187414 -0.00813289 -0.0959161 0.995356 1 93 59 234 255 4.42512 19.329
287.319 1075.9 7.13582 -0.046713 -0.0923982 0.994626 1 93 59 234 255 4.50283 18.7526
275.28 1069.5 0.314236 -0.125206 -0.0147122 0.992022 1 93 59 234 255 4.12258 16.807
263.086 1070.73 2.1616 -0.107064 0.185487 0.976797 1 93 59 234 255 1.38977 14.5568
-32.2486 1388.5 344.087 0.42597 0.878084 0.217984 1 56 145 92 255 2.63923 16.4298
-49.5234 1397.05 352.306 0.360988 0.889891 0.278892 1 56 145 92 255 5.35489 14.5734
-62.8517 1397.27 352.682 0.215727 0.913392 0.34522 1 56 145 92 255 5.43093 12.3947
-76.1801 1397.5 353.059 0.121172 0.935834 0.330958 1 56 145 92 255 5.50653 11.8277
-90.1019 1399.03 354.831 0.127287 0.945299 0.300345 1 56 145 92 255 5.58165 12.0303
-104.571 1401.86 357.999 0.142088 0.961119 0.236773 1 56 145 92 255 5.65623 12.5592
-118.144 1402.74 359.07 0.1586 0.97593 0.14969 1 56 145 92 255 5.73023 13.5961
-132.566 1405.64 362.312 0.187341 0.977904 0.0927758 1 56 145 92 255 5.8036 14.5423
-147.617 1410.22 367.33 0.15469 0.984693 0.0803196 1 56 145 92 255 5.87629 14.2243
-160.534 1409.71 366.93 0.0047444 0.99543 0.0953796 1 56 145 92 255 5.94825 13.0455
