ply
format ascii 1.0
element vertex 556
property float x
property float y
property float z
property float nx
property float ny
property float nz
property float curvature
property uchar red
property uchar green
property uchar blue
property uchar alpha
property float quality
property float radius
end_header
1452.01 1740.23 812.65 -0.0588809 -0.0642862 0.996193 1 68 210 139 255 5.45972 9.29263
1439.3 1723.97 811.516 -0.0180008 -0.0651378 0.997714 1 68 210 139 255 5.76176 9.09047
1446.27 1727.11 811.403 -0.0358782 -0.0589829 0.997614 1 68 210 139 255 6.90919 9.24001
1452.95 1730.33 812.001 -0.0343438 -0.0709575 0.996888 1 68 210 139 255 8.19372 9.15615
603.277 1249.77 801.669 0.214287 -0.176846 0.960628 1 187 167 140 255 5.97563 7.06365
698.539 1344.29 772.118 -0.0420257 -0.0450712 0.998099 1 187 167 140 255 11.6971 9.94612
983.085 1499.64 771.864 0.186876 0.225406 0.956174 1 187 167 140 255 10.6968 11.0509
1033.15 1537.98 766.97 0.281185 0.121225 0.951966 1 187 167 140 255 11.2176 10.4149
1447.72 1717.17 809.989 -0.0472211 -0.0527591 0.99749 1 68 210 139 255 8.31988 9.15096
1454.46 1719.66 810.651 -0.0431732 -0.0439767 0.998099 1 68 210 139 255 5.70211 9.02053
995.538 1494.31 771.635 0.141637 0.217594 0.965708 1 187 167 140 255 11.6088 11.1084
1175.7 1566.5 800.764 0.0160264 -0.577303 0.816373 1 68 210 139 255 12.5284 6.34066
1448.72 1705.1 809.736 -0.0544703 -0.0358118 0.997873 1 68 210 139 255 8.34619 9.19855
1455.83 1706.71 812.018 -0.0320462 -0.0437391 0.998529 1 68 210 139 255 7.40909 9.15414
505.892 1213.96 766.713 -0.0227263 -0.0694893 0.997324 1 187 167 140 255 8.18033 9.86391
550.278 1219.62 782.492 -0.474457 -0.254738 0.842615 1 187 167 140 255 6.80597 19.9255
576.186 1221.65 794.701 -0.100525 -0.495671 0.862673 1 187 167 140 255 6.13395 8.83232
647.892 1294.42 765.457 0.118408 0.0585161 0.991239 1 187 167 140 255 10.0996 9.43998
998.396 1473.75 778.602 0.123914 0.217855 0.968083 1 187 167 140 255 8.58802 11.0387
1450.07 1692.23 810.371 -0.0407051 -0.0797917 0.99598 1 68 210 139 255 8.18824 8.68979
1457.58 1696.66 809.839 -0.0116185 -0.0758638 0.99705 1 68 210 139 255 8.74576 8.75967
479.092 1188.14 766.869 -0.00413918 -0.0914681 0.995799 1 187 167 140 255 5.40082 10.0917
545.339 1213.51 777.234 -0.436836 -0.341199 0.832321 1 187 167 140 255 6.03506 16.838
646.474 1268.15 775.109 0.792549 0.198151 0.576717 1 187 167 140 255 6.79547 7.90556
1010.59 1466.99 778.491 0.0952555 0.145199 0.984806 1 187 167 140 255 7.65342 9.88914
1050.68 1502.9 769.506 -0.0539677 -0.121435 0.991131 1 187 167 140 255 9.55328 8.10557
935.967 2151.71 102.746 -0.0260099 -0.0734864 0.996957 1 255 255 255 255 6.70883 14.4634
947.668 2167.84 94.5388 0.301975 -0.0385004 0.952538 1 255 255 255 255 5.71085 14.5025
1452.41 1682.85 808.916 -0.0453551 -0.0980458 0.994148 1 68 210 139 255 6.92782 8.36308
1458.64 1684.83 810.283 -0.0467894 -0.0859586 0.995199 1 68 210 139 255 5.46762 8.44468
564.766 1207.72 781.021 -0.147157 -0.851021 0.504091 1 187 167 140 255 5.83911 10.8881
573.971 1209.57 784.691 0.0228956 -0.820061 0.571818 1 187 167 140 255 7.76559 8.58855
653.752 1277.1 768.822 0.308776 0.14781 0.939579 1 187 167 140 255 8.137 9.12056
660.186 1283.73 766.196 0.0725276 -0.0187619 0.99719 1 187 167 140 255 10.965 9.13311
941.286 2131.05 104.552 0.135138 -0.0419287 0.989939 1 255 255 255 255 5.66321 14.3274
954.945 2147.82 90.8597 0.528486 -0.0500661 0.847465 1 8 38 238 255 9.96454 15.1477
964.592 2159.85 85.7822 0.689174 -0.0519063 0.722735 1 8 38 238 255 10.0022 16.4136
973.609 2189.6 74.3947 0.633575 -0.0873906 0.76873 1 8 38 238 255 10.8802 15.8512
987.572 2195.24 71.4682 0.283142 -0.089532 0.95489 1 8 38 238 255 12.4596 14.5495
1453.51 1673.2 807.267 -0.0272144 -0.0457445 0.998582 1 68 210 139 255 8.23822 8.73816
1459.96 1677.49 808.276 -0.0587923 -0.0754584 0.995414 1 68 210 139 255 6.05532 8.43765
658.588 1263.9 762.627 0.378689 0.0284885 0.925085 1 187 167 140 255 7.31213 6.99281
662.56 1269.42 764.92 0.170274 0.0204851 0.985184 1 187 167 140 255 9.14538 8.50139
960.642 2129.14 93.113 0.604229 -0.0773922 0.793043 1 255 255 255 255 10.3353 14.9338
981.811 2162.31 70.2927 0.422837 -0.0344656 0.90555 1 8 38 238 255 10.8268 15.0716
993.861 2179.35 70.046 0.118475 -0.0345216 0.992357 1 8 38 238 255 13.1881 15.1405
1243.81 1557.82 799.684 -0.049264 -0.53045 0.846283 1 68 210 139 255 9.38164 6.42084
1251.98 1558.82 800.59 -0.0479515 -0.487656 0.871718 1 68 210 139 255 8.61314 6.46112
1461.67 1668.02 807.655 -0.0474538 -0.0345441 0.998276 1 68 210 139 255 7.56024 8.70468
656.914 1253.56 760.419 0.332065 -0.122519 0.935266 1 255 255 255 255 7.05956 6.5896
989.326 2145.99 65.6582 0.216768 -0.0615755 0.974279 1 8 38 238 255 8.27746 14.3034
1001.89 2157.07 71.3442 0.0250586 -0.0712534 0.997143 1 237 69 129 255 10.2944 14.46
1262.23 1553.4 797.779 -0.110366 -0.7424 0.660803 1 68 210 139 255 9.00555 5.96612
1456.84 1652.9 807.454 -0.0574659 -0.0602967 0.996525 1 68 210 139 255 5.02424 8.26558
1462.58 1655.98 808.114 -0.0396712 -0.0642309 0.997146 1 68 210 139 255 8.65115 8.3943
637.84 1231.23 763.078 0.275645 -0.460685 0.843676 1 187 167 140 255 6.24919 6.35683
642.469 1236.31 760.74 0.299477 -0.333178 0.894039 1 255 255 255 255 5.60972 6.32056
649.719 1239.8 761.183 0.240374 -0.275717 0.930699 1 255 255 255 255 7.9623 6.75983
655.844 1243.98 759.704 0.169294 -0.183144 0.9684 1 255 255 255 255 5.91986 7.07488
982.292 2120.93 64.2663 0.421734 -0.0860542 0.902627 1 237 69 129 255 7.45104 14.0062
994.55 2133.09 69.4236 0.125939 -0.0472119 0.990914 1 8 38 238 255 9.44817 14.663
1100.37 2043.23 218.728 0.470268 -0.8818 -0.0357435 1 255 255 255 255 7.05958 15.6741
1271.9 1550.97 797.34 -0.0998082 -0.664467 0.740623 1 68 210 139 255 8.43766 6.10292
1282.83 1554.05 799.38 -0.0841624 -0.487513 0.86905 1 68 210 139 255 6.15123 6.25534
1458.67 1642.84 806.596 -0.0526265 -0.0707427 0.996105 1 68 210 139 255 6.82865 8.14237
1464.04 1645.59 806.992 -0.0729636 -0.0638552 0.995288 1 68 210 139 255 6.68598 8.38434
989.936 2104.89 63.4871 0.142481 -0.0495149 0.988558 1 8 38 238 255 7.25154 14.0798
1114.1 2052.75 193.682 0.892076 -0.451879 0.00219724 1 255 255 255 255 5.14355 24.0255
1461.37 1631.95 806.704 -0.0569335 -0.084355 0.994808 1 68 210 139 255 8.00826 7.98365
1466.91 1633.26 807.321 -0.0695411 -0.0638853 0.995531 1 68 210 139 255 5.33413 8.20009
702.204 1239.23 770.09 -0.249092 0.0783353 0.965307 1 187 167 140 255 9.0948 12.7961
982.946 2079.44 64.517 0.231678 -0.00976308 0.972744 1 8 38 238 255 9.71454 14.4755
993.969 2090.19 67.7246 0.0744549 -0.0357081 0.996585 1 8 38 238 255 11.1775 14.4772
1035.7 2105.28 71.6627 -0.511785 -0.0855937 0.854839 1 8 38 238 255 7.09584 18.0194
1104.88 2046.17 176.311 0.627434 -0.777861 0.0354631 1 255 255 255 255 7.16523 16.1226
1312.15 1550.27 799.334 -0.0733587 -0.530704 0.844376 1 68 210 139 255 9.0392 5.96785
1462.79 1622.24 804.924 -0.0342172 -0.0790579 0.996283 1 68 210 139 255 7.97605 7.95829
1468.97 1623.74 805.351 -0.0729431 -0.0811921 0.994026 1 68 210 139 255 6.66444 7.82264
717.762 1225.29 774.713 0.0439517 0.479868 0.876239 1 187 167 140 255 5.21258 13.8931
720.253 1233.07 773.698 -0.00871061 0.30572 0.952082 1 187 167 140 255 8.9707 11.7814
977.709 2051.91 66.3101 0.350225 -0.0257621 0.936311 1 8 38 238 255 10.6332 14.1897
992.363 2064.46 68.0481 0.119132 -0.017416 0.992726 1 8 38 238 255 9.67491 14.1756
1042.76 2087.48 71.8354 -0.490993 -0.0748286 0.867944 1 8 38 238 255 10.9355 18.3062
1058.86 2086.2 83.8323 -0.769642 -0.11921 0.627248 1 237 69 129 255 5.1309 24.8488
1107.34 2049.05 151.192 0.831293 -0.551118 -0.0722503 1 150 76 101 255 5.38472 24.4248
1315.03 1544.28 792.427 -0.188529 -0.904458 0.382638 1 68 210 139 255 7.16785 6.21708
1321.58 1544.6 796.269 -0.126291 -0.805966 0.578333 1 68 210 139 255 6.67949 5.74941
1328.81 1545.11 799.386 -0.119239 -0.622419 0.773548 1 68 210 139 255 6.73216 5.72732
1335.01 1548.41 801.21 -0.0409739 -0.356357 0.933451 1 68 210 139 255 9.63647 6.37465
1464.36 1611.34 804.102 -0.0435955 -0.022868 0.998788 1 68 210 139 255 8.58315 8.27575
1469.93 1611.36 806.689 -0.0633241 -0.0303487 0.997531 1 68 210 139 255 5.25584 8.22138
670.371 1172.3 794.133 0.151785 0.109575 0.982321 1 187 167 140 255 7.11923 7.6258
985.536 2041.65 65.9142 0.268521 -0.019839 0.963069 1 8 38 238 255 7.8126 13.7281
1036.88 2068.15 67.6687 -0.47262 -0.108779 0.874527 1 8 38 238 255 7.85833 17.0243
1049.63 2073.04 70.9896 -0.622245 -0.0598457 0.780531 1 8 38 238 255 8.89239 20.6562
1097.04 2042.42 135.539 0.317363 -0.948302 -0.00193614 1 255 255 255 255 6.1747 15.4757
1106.15 2063.78 121.41 0.894323 -0.446593 0.0272378 1 255 255 255 255 9.04174 24.1331
1154.93 2134.12 62.7086 0.118865 -0.0884427 0.988964 1 117 246 163 255 5.60331 13.5797
1166.69 2134.86 66.6702 0.0412 -0.0759123 0.996263 1 117 246 163 255 9.31687 13.799
1202.6 2163.69 60.6778 0.0699981 -0.106501 0.991846 1 117 246 163 255 5.38486 13.5456
1219.59 2164.56 65.3861 -0.0271066 -0.0776384 0.996613 1 117 246 163 255 13.0822 14.0274
1336.74 1542.8 795.494 -0.120643 -0.782339 0.611057 1 68 210 139 255 7.64408 5.69244
1344.14 1543.78 798.808 -0.0660668 -0.606702 0.792179 1 68 210 139 255 11.7293 5.78809
1465.65 1599.22 804.887 -0.0585059 -0.0266796 0.99793 1 68 210 139 255 7.8837 8.08966
672.715 1160.28 796.234 0.143589 0.019445 0.989446 1 187 167 140 255 6.20295 7.47292
733.304 1203.05 786.358 0.101179 0.281258 0.954283 1 187 167 140 255 7.36407 10.0514
982.439 2013.77 62.4888 0.314607 -0.0798101 0.945861 1 8 38 238 255 10.6254 13.1137
1055.11 2048.04 75.6667 -0.596195 0.00803463 0.8028 1 237 69 129 255 11.0641 21.6694
1109 2054.34 108.623 0.85363 -0.49867 0.150479 1 237 69 129 255 5.07348 19.1205
1145.69 2108.03 63.233 0.266062 -0.0614557 0.961995 1 117 246 163 255 7.01515 13.9599
1159.62 2115.39 63.8895 0.109782 -0.0595057 0.992173 1 117 246 163 255 8.68735 13.8293
1209.32 2146.32 59.7675 -0.00457117 -0.113873 0.993485 1 117 246 163 255 9.3575 13.5506
1238.66 2146.27 69.3286 -0.100086 -0.0512905 0.993656 1 117 246 163 255 10.1594 14.3039
1270.35 2181.19 69.1019 0.0359169 -0.168247 0.98509 1 117 246 163 255 7.65394 13.1026
1352.73 1539.89 794.942 -0.110206 -0.832675 0.542685 1 68 210 139 255 8.35739 5.66284
1467.96 1590.13 804.178 -0.0444669 -0.0464313 0.997931 1 68 210 139 255 6.7295 7.68869
1472.48 1596.36 806.686 -0.0627038 -0.0431063 0.997101 1 68 210 139 255 5.22182 7.88977
987.292 2003.89 60.6571 0.172474 -0.0739378 0.982235 1 8 38 238 255 7.82486 12.9758
1041.07 2026.67 67.5041 -0.501842 0.0182761 0.864766 1 237 69 129 255 8.88717 19.0364
1052.73 2025.49 75.3512 -0.572421 0.0301138 0.819407 1 237 69 129 255 7.75739 20.8218
1077.81 2023.75 99.6842 -0.418423 -0.140121 0.897379 1 237 69 129 255 6.701 15.36
1095.64 2018.68 101.07 0.430905 -0.245812 0.868273 1 237 69 129 255 6.43195 12.2519
1278.05 2162.05 68.3332 -0.00556639 -0.087237 0.996172 1 117 246 163 255 9.09353 13.6693
1362.49 1537.17 792.691 -0.181054 -0.864802 0.468335 1 68 210 139 255 7.15196 5.89661
1368.13 1538.63 795.56 -0.134912 -0.811586 0.568442 1 68 210 139 255 6.36601 5.66122
1474.13 1587.9 804.948 -0.0219173 -0.0795083 0.996593 1 68 210 139 255 6.49972 7.59809
993.809 1987.98 60.5297 0.123372 -0.0172033 0.992211 1 8 38 238 255 14.5423 13.604
1035.64 2002.4 64.4912 -0.45162 -0.00407394 0.892201 1 237 69 129 255 8.59922 17.9544
1046.19 2004.1 71.7468 -0.555541 0.00277462 0.831484 1 237 69 129 255 7.85016 19.5617
1073.67 1994.32 95.0947 -0.385601 -0.0171086 0.922507 1 237 69 129 255 11.6767 16.4037
1090.77 2002.39 95.9553 0.037704 -0.0917654 0.995067 1 237 69 129 255 8.36342 12.958
1101.07 2007.81 92.7611 0.55002 -0.151056 0.821377 1 237 69 129 255 10.3948 13.4058
1270.59 2135.85 68.7329 0.0513816 -0.115227 0.992009 1 117 246 163 255 5.65502 13.2253
1321.53 2156.95 72.0032 0.0247018 -0.127253 0.991563 1 117 246 163 255 10.5208 13.1284
1470.86 1574.89 803.697 -0.0377658 -0.0667344 0.997056 1 68 210 139 255 6.43662 7.56724
1477.76 1580.25 804.491 -0.0550365 -0.0691286 0.996089 1 68 210 139 255 5.88108 7.69396
779.692 1220.09 771.759 0.163369 0.267227 0.949684 1 187 167 140 255 5.25264 9.0093
987.943 1960.58 60.5166 0.15572 0.0488968 0.98659 1 8 38 238 255 9.2837 13.924
1038.21 1989.08 63.2533 -0.526709 0.0438361 0.848915 1 237 69 129 255 10.8274 20.0085
1083.57 1986.58 94.2067 -0.0995879 -0.0407709 0.994193 1 237 69 129 255 8.45215 13.5273
1471.84 1565.54 802.959 -0.0400571 -0.0557087 0.997643 1 68 210 139 255 8.35194 7.53397
694.313 1137.27 791.125 0.188525 -0.0259696 0.981725 1 187 167 140 255 8.04246 6.62999
981.421 1940.56 62.2555 0.252219 -0.0272007 0.967288 1 8 38 238 255 12.8323 13.0499
1033.9 1961.02 67.9028 -0.498569 0.0677167 0.864201 1 237 69 129 255 9.0778 19.8495
1074.21 1965.19 92.6587 -0.273101 -0.0208886 0.961758 1 237 69 129 255 7.29218 14.8965
1478.41 1567.13 803.273 -0.067767 -0.0656288 0.99554 1 68 210 139 255 6.37652 7.49233
802.616 1212.54 770.393 0.137932 -0.148215 0.979289 1 187 167 140 255 10.6371 6.69841
976.726 1920.19 60.7903 0.405135 -0.074769 0.911194 1 8 38 238 255 10.4104 12.5678
1027.29 1941.03 64.3329 -0.456612 0.0351289 0.888972 1 237 69 129 255 10.7256 18.0204
1067.49 1950.4 88.5968 -0.34785 0.0627581 0.935447 1 237 69 129 255 7.41851 17.0491
1473.15 1552.57 803.351 -0.0546628 -0.0589675 0.996762 1 68 210 139 255 7.00631 7.344
1479.68 1557.6 802.447 -0.039782 -0.0636744 0.997178 1 68 210 139 255 7.54566 7.40028
787.389 1195.96 761.164 0.187585 -0.242218 0.951915 1 187 167 140 255 8.04575 6.69111
982.621 1908.2 56.4775 0.2785 -0.0342879 0.959824 1 8 38 238 255 12.8604 12.6016
1019.34 1922.03 61.8223 -0.354318 0.0250445 0.93479 1 237 69 129 255 8.23367 16.3396
1033.22 1923.09 66.4068 -0.492401 0.0383337 0.869524 1 237 69 129 255 10.4763 18.5637
1062.5 1920.09 91.4027 -0.23901 0.00367819 0.97101 1 237 69 129 255 5.9376 14.0742
1073.27 1928.27 90.4736 -0.127467 0.00465227 0.991832 1 237 69 129 255 7.55784 13.4145
1439.05 2145.75 68.9337 0.0407677 -0.116682 0.992332 1 117 246 163 255 7.93889 12.8941
1474.17 1544.36 802.093 -0.0468953 -0.091293 0.994719 1 68 210 139 255 7.6043 7.07063
1480.88 1547.76 802.078 -0.0490276 -0.068469 0.996448 1 68 210 139 255 8.12196 7.24019
968.508 1865.14 65.8441 0.741542 -0.097597 0.66377 1 255 255 255 255 8.78871 13.9852
976.038 1883.28 56.0343 0.486899 -0.0275697 0.873023 1 255 255 255 255 7.66266 12.8972
1014.17 1897.3 61.3641 -0.309251 0.00159839 0.950979 1 8 38 238 255 7.84426 15.3844
1031.31 1898.01 70.4331 -0.533889 0.0931427 0.840409 1 237 69 129 255 10.4863 20.6434
1055.9 1896.63 90.9545 -0.382584 0.0679357 0.92142 1 237 69 129 255 9.07547 16.5765
1068.06 1901.67 93.1406 -0.0514492 0.012728 0.998594 1 237 69 129 255 6.63344 13.0211
1475.25 1535.47 800.989 -0.0546643 -0.1972 0.978838 1 68 210 139 255 8.19868 6.45688
1481.77 1537.74 801.409 -0.0626727 -0.11472 0.991419 1 68 210 139 255 7.45213 6.89169
661.809 1085.39 790.296 0.0121846 -0.0812775 0.996617 1 187 167 140 255 6.90446 7.67324
962.874 1842.85 73.1055 0.903362 -0.141055 0.405019 1 255 255 255 255 5.93832 17.2642
973.756 1856.5 55.7389 0.525581 -0.176133 0.832311 1 255 255 255 255 6.13432 11.5918
1024.57 1879.49 69.3828 -0.50444 0.165782 0.847382 1 237 69 129 255 8.26584 21.3874
1062.65 1878.41 94.2092 -0.184934 0.0822405 0.979304 1 237 69 129 255 7.44325 14.5424
1497.25 2143.77 68.1182 -0.00103704 -0.122231 0.992501 1 117 246 163 255 7.41747 12.7464
1482.73 1530.26 800.313 -0.058725 -0.311621 0.94839 1 68 210 139 255 5.26767 5.82803
966.125 1833.33 58.2011 0.785886 -0.0801047 0.613161 1 255 255 255 255 8.33217 14.6163
1017.9 1857.77 66.0621 -0.563391 0.0210798 0.825921 1 237 69 129 255 8.37886 18.7161
1059.24 1858.01 92.8407 -0.210756 0.073626 0.974762 1 237 69 129 255 11.336 14.6148
1069.03 1863.67 91.2232 -0.0762331 0.0882314 0.993179 1 237 69 129 255 7.23164 13.7847
1078.66 1873.35 89.934 0.110519 0.0376935 0.993159 1 237 69 129 255 6.67448 12.774
1499.65 2126.31 67.4636 0.00902549 -0.0832467 0.996488 1 117 246 163 255 8.37239 13.0111
1483.97 1522.69 797.712 -0.16302 -0.757526 0.632122 1 68 210 139 255 5.81024 5.25003
1010.24 1839.32 61.5534 -0.491534 0.00747302 0.870826 1 237 69 129 255 6.6848 16.9088
1052.26 1837.13 91.7843 -0.279408 -0.0650873 0.957964 1 237 69 129 255 11.4347 13.3367
1120.84 1893.48 65.7763 0.0391047 0.0251345 0.998919 1 117 246 163 255 6.13282 12.8431
1181.75 1921.24 73.7435 0.176697 0.0142436 0.984162 1 117 246 163 255 10.0133 12.8861
1191.43 1930.38 69.3214 0.299368 -0.103476 0.94851 1 117 246 163 255 11.4171 12.059
1201.33 1941.52 62.2929 0.347848 -0.151842 0.925173 1 117 246 163 255 6.94921 11.9341
1551.94 2132.49 63.8792 0.0632408 -0.0503297 0.996728 1 117 246 163 255 6.08957 13.4836
1007.84 1816.73 56.9247 -0.559508 0.0226727 0.828515 1 237 69 129 255 8.30503 18.6004
1045.9 1819.87 87.9514 -0.349699 -0.0888017 0.932644 1 237 69 129 255 8.06211 13.4778
1082.89 1835.89 89.772 0.699756 -0.261114 0.664951 1 237 69 129 255 6.50139 12.4816
1091.48 1848.91 81.7511 0.795223 -0.342783 0.50012 1 237 69 129 255 6.36531 13.607
1172.94 1893.71 78.3462 0.326992 -0.106595 0.938996 1 117 246 163 255 7.86387 11.6465
1186.15 1911.27 66.3505 0.394233 -0.153864 0.906039 1 117 246 163 255 7.51743 11.9111
996.966 1804.46 54.7005 -0.411731 -0.0873117 0.907113 1 237 69 129 255 5.83677 14.0368
1049.63 1803.31 88.4208 -0.159271 -0.0807441 0.983927 1 237 69 129 255 10.4119 12.1498
1093.2 1847.51 67.2048 0.799606 -0.324061 0.505584 1 237 69 129 255 8.78246 13.8748
1201.36 1905.18 58.8265 0.27279 -0.0692996 0.959574 1 117 246 163 255 7.27153 12.1092
972.388 1227.51 765.854 0.287716 -0.567991 0.771107 1 187 167 140 255 10.6887 5.39907
980.475 1229.92 765.496 0.380538 -0.50898 0.772094 1 187 167 140 255 11.5524 5.42929
942.547 1640.22 205.858 0.509896 -0.859972 -0.0212994 1 255 255 255 255 6.75863 15.594
953.26 1647.1 202.473 0.750061 -0.661058 -0.0202814 1 255 255 255 255 5.89951 17.084
1005.92 1781.62 56.3784 -0.553977 0.0543379 0.830757 1 237 69 129 255 9.61732 18.8565
1044.7 1784.63 86.7542 -0.175985 -0.0115049 0.984326 1 237 69 129 255 8.08596 12.4988
1098.53 1833 55.0935 0.630316 -0.0878822 0.771349 1 237 69 129 255 5.65668 12.884
1621.96 2119.32 67.678 -0.0778301 -0.106511 0.991261 1 117 246 163 255 5.86663 12.3004
1017.78 1245.29 763.731 -0.0182205 -0.502745 0.864243 1 187 167 140 255 10.6538 5.57269
941.996 1641.77 180.829 0.569295 -0.821995 -0.0151079 1 255 255 255 255 5.81875 15.9601
995.029 1771.22 49.948 -0.504354 0.0500602 0.862045 1 237 69 129 255 7.54466 17.0654
1039 1764.25 86.3327 -0.243744 0.0449004 0.9688 1 237 69 129 255 7.32073 13.2593
751.898 1077.68 779.668 0.0714354 -0.193076 0.97858 1 187 167 140 255 5.18968 6.06391
957.827 1703.61 87.1053 0.951755 0.138166 0.273993 1 255 255 255 255 5.55297 27.1345
984.031 1741.54 58.4785 -0.0307651 -0.00330503 0.999521 1 237 69 129 255 5.30237 12.2495
994.009 1747.9 50.7457 -0.438787 0.0586181 0.896677 1 237 69 129 255 10.3211 16.173
1033.12 1746.39 85.1343 -0.385103 0.0540685 0.921288 1 237 69 129 255 9.52807 15.1407
880.925 1667.48 50.1259 -0.567937 -0.1161 0.814843 1 199 212 79 255 7.99997 16.871
995.072 1725.33 52.6512 -0.611911 0.0463337 0.789568 1 237 69 129 255 7.06513 19.2226
859.831 1647.65 43.9573 -0.134505 -0.12285 0.983268 1 199 212 79 255 11.7284 11.5398
871.364 1651.58 43.8139 -0.44495 -0.119274 0.887577 1 199 212 79 255 6.5006 13.9173
1305.6 1888.86 56.0639 0.0220404 -0.0222092 0.99951 1 117 246 163 255 8.46809 11.9354
1313.89 1897.78 54.1546 0.0560963 -0.0759386 0.995533 1 117 246 163 255 5.07181 11.5841
981.62 1690.77 50.9479 -0.204747 -0.078008 0.975702 1 117 246 163 255 6.09089 12.0662
1095.01 1751.46 51.1862 0.381754 -0.0585735 0.922406 1 117 246 163 255 8.74295 11.4354
1121.58 1773.08 49.2306 0.0184676 -0.0695107 0.99741 1 117 246 163 255 10.9497 11.2113
1135.73 1779.76 49.8884 0.0441965 -0.115872 0.99228 1 117 246 163 255 8.73244 10.8377
795.466 1077.52 766.748 0.786069 0.193922 0.586933 1 187 167 140 255 6.28243 6.38553
853.629 1601.43 55.3724 0.0224497 0.547646 0.836409 1 199 212 79 255 10.6798 21.1587
917.565 1620.32 75.8118 -0.353854 -0.16913 0.919882 1 199 212 79 255 6.21287 12.4143
1167.23 1780.48 48.1705 -0.0303767 -0.0390623 0.998775 1 117 246 163 255 9.7043 11.354
1357.14 1883.61 54.3445 -0.0363558 -0.0606155 0.997499 1 117 246 163 255 6.29243 11.2481
1026.91 1210.05 751.031 0.653059 -0.0906493 0.751862 1 187 167 140 255 5.45402 5.93043
834.706 1565.16 73.2512 -0.0430831 0.0305226 0.998605 1 199 212 79 255 6.85056 11.3875
923.571 1607.94 76.0521 -0.122953 -0.13407 0.983315 1 199 212 79 255 5.46802 10.5917
1204.14 1778.49 51.5649 0.0277725 -0.0625749 0.997654 1 117 246 163 255 9.41832 11.0723
1495.49 1937.6 56.8296 0.0125674 -0.0795352 0.996753 1 117 246 163 255 8.41894 11.4544
1506.57 1948.17 55.7088 0.0302712 -0.130362 0.991004 1 117 246 163 255 6.48737 11.0786
1025.44 1202.55 748.706 0.582583 -0.0564689 0.810807 1 187 167 140 255 5.32157 5.57701
910.237 1582.76 75.6113 -0.130317 0.127596 0.983228 1 199 212 79 255 5.94034 12.663
917.458 1590.83 76.1687 -0.0811794 0.101971 0.99147 1 199 212 79 255 7.48452 12.3785
938.332 1609.36 71.0523 0.212642 -0.132663 0.968083 1 199 212 79 255 5.24446 9.8695
838.654 1541.64 66.1781 -0.0485497 -0.500294 0.864494 1 199 212 79 255 5.19577 9.70656
960.01 1621.12 48.7641 0.783551 -0.136483 0.606152 1 117 246 163 255 8.80533 12.4737
969.083 1629.82 41.2845 0.480916 -0.0927126 0.871851 1 117 246 163 255 10.3587 10.6834
1043.2 1641.71 81.5837 0.168941 -0.81937 0.547806 1 237 69 129 255 5.89018 10.0569
1054.12 1648.42 78.4741 0.621995 -0.617232 0.481816 1 237 69 129 255 7.28493 10.9773
1150.08 1720.16 49.4738 -0.0204696 -0.0368025 0.999113 1 117 246 163 255 11.3522 10.9018
1346.61 1823.58 61.5891 0.0932753 -0.087461 0.991791 1 117 246 163 255 5.89508 10.9045
726.093 991.536 787.611 0.153817 -0.0472207 0.98697 1 187 167 140 255 5.18287 6.5253
804.983 1057.65 757.653 0.619587 0.0392297 0.783947 1 187 167 140 255 7.3352 5.86415
1026.14 1185.57 746.612 0.704828 -0.0124667 0.709268 1 187 167 140 255 5.87724 5.703
832.366 1531.27 56.1951 -0.011903 -0.844592 0.535277 1 199 212 79 255 8.65262 11.2186
1065.95 1655.08 53.7418 0.622446 -0.502362 0.600161 1 237 69 129 255 7.32631 10.6618
1350.45 1812.49 53.7412 0.0671152 -0.247034 0.96668 1 117 246 163 255 10.9663 9.98296
1454.58 1866.36 57.5781 -0.119548 0.0402054 0.992014 1 117 246 163 255 5.49422 11.9826
1627.88 1957.65 59.7288 -0.0392026 -0.0492528 0.998017 1 117 246 163 255 5.42875 11.4191
1024.73 1176.59 746.722 0.61392 -0.0781886 0.785486 1 187 167 140 255 5.78058 5.27774
1009.32 1618.09 41.9398 -0.0273769 -0.174319 0.984309 1 117 246 163 255 9.23984 10.1374
1070.25 1644.81 47.6891 0.30515 -0.391937 0.86791 1 117 246 163 255 7.20003 9.25025
1160.09 1694.71 49.7474 0.035802 -0.0858839 0.995662 1 117 246 163 255 8.23574 10.3636
1170.65 1697.03 51.4207 0.0064478 -0.0987731 0.995089 1 117 246 163 255 7.8329 10.4203
1027.15 1172.46 742.21 0.796862 -0.156869 0.583441 1 187 167 140 255 5.68293 5.88754
971.699 1574.92 49.0083 0.73931 0.119257 0.662721 1 199 212 79 255 8.51207 13.7442
1048.19 1623.88 37.7887 0.00570506 -0.323206 0.946311 1 117 246 163 255 5.90294 9.32843
1057.06 1624.51 43.5915 0.0821006 -0.111899 0.990322 1 117 246 163 255 5.16833 10.3081
1063.03 1628.42 40.6663 0.00475493 -0.218001 0.975937 1 117 246 163 255 5.64757 9.82807
788.588 995.643 777.292 0.298238 0.0434058 0.953504 1 187 167 140 255 6.17556 5.93003
766.363 973.024 779.424 0.129202 -0.0688888 0.989222 1 187 167 140 255 5.0133 6.0663
807.617 1008.95 763.09 0.764811 0.00386924 0.644243 1 187 167 140 255 5.32788 5.60805
488.295 1393.32 1200.87 0.834374 -0.550968 -0.0159736 1 179 52 205 255 5.76898 6.41301
550.612 1486.21 1185.86 0.802009 -0.583987 0.125459 1 179 52 205 255 6.97431 6.17369
557.563 1489.81 1184.84 0.811621 -0.571763 0.119826 1 179 52 205 255 8.84357 6.17596
560.614 1496.67 1183.03 0.820518 -0.556277 0.131552 1 179 52 205 255 7.6605 6.20855
564.61 1496.59 1175.22 0.780553 -0.584489 0.221606 1 179 52 205 255 7.00012 6.07176
568.047 1503.84 1173.25 0.805973 -0.560472 0.190469 1 179 52 205 255 9.85892 6.21665
571.452 1509.73 1171.66 0.801774 -0.56329 0.199655 1 179 52 205 255 6.34965 6.03997
572.852 1514.83 1171.32 0.76653 -0.594659 0.242513 1 179 52 205 255 5.10908 6.16961
578.372 1519.09 1170.79 0.795837 -0.56702 0.212443 1 179 52 205 255 7.75374 6.02471
588.754 1532.74 1171.05 0.82636 -0.559291 0.0657401 1 179 52 205 255 8.1659 6.41546
594.722 1539.93 1165.61 0.864815 -0.492936 0.0954371 1 179 52 205 255 5.84133 6.59308
604.224 1553.53 1163.74 0.807106 -0.578131 0.119768 1 179 52 205 255 9.38453 6.52689
620.79 1576.31 1160.12 0.778738 -0.613812 0.129621 1 179 52 205 255 10.1197 6.45812
625.404 1583.38 1158.73 0.789908 -0.585604 0.18197 1 179 52 205 255 10.0083 6.55286
631.354 1584.99 1154.47 0.807172 -0.569431 0.155632 1 179 52 205 255 5.53335 6.48939
636.549 1595.8 1156.34 0.79556 -0.583235 0.164076 1 179 52 205 255 7.692 6.52225
643.092 1606.84 1152.5 0.763854 -0.637656 0.0996095 1 179 52 205 255 8.02144 6.70737
654.591 1618.18 1150.99 0.691834 -0.706664 0.148293 1 179 52 205 255 9.3089 6.43884
662.111 1622.28 1151.6 0.722199 -0.682556 0.112008 1 179 52 205 255 6.92279 6.34058
839.734 2411.41 931.223 0.0302452 -0.999408 0.0163819 1 239 26 248 255 12.3413 10.6952
1096.3 2407.86 976.843 -0.0155506 -0.99966 -0.0209031 1 239 26 248 255 6.90478 9.89396
1127.96 2415.1 979.449 -0.0236027 -0.999648 -0.0121566 1 239 26 248 255 7.79355 9.62367
1172.85 2415.1 986.363 0.00656156 -0.999655 0.0254145 1 239 26 248 255 6.56923 9.28539
1208.77 2411.24 992.977 -0.129939 -0.991033 -0.0311362 1 239 26 248 255 5.61541 9.54784
546.708 2391.99 866.559 0.133743 0.0583653 0.989296 1 207 218 45 255 5.34293 28.646
624.229 2418.66 873.031 0.00728703 -0.947144 0.320725 1 239 26 248 255 7.21276 11.3212
608.708 1556.25 1151.02 0.818898 -0.56161 0.118325 1 179 52 205 255 8.1335 6.4669
1252.87 2410.53 985.948 -0.0947301 -0.995135 0.0270778 1 239 26 248 255 6.21111 9.24047
534.478 1455.58 1161.6 0.76367 -0.610822 0.209056 1 179 52 205 255 6.93145 6.0438
589.772 1528.73 1148.73 0.864398 -0.493456 0.096522 1 179 52 205 255 5.87947 6.60939
569.561 2352.91 867.512 -0.0231936 -0.0790508 0.996601 1 207 218 45 255 6.10037 24.7899
1086.21 2412.1 938.842 -0.00618132 -0.999384 0.0345431 1 239 26 248 255 7.92481 9.85409
509.316 2186.84 895.869 -0.163608 -0.229418 0.959479 1 207 218 45 255 7.86786 21.6179
576.246 2308.95 860.874 0.0180396 -0.0320967 0.999322 1 207 218 45 255 8.8947 25.7591
483.881 1380.79 1166.74 0.815531 -0.556598 0.158453 1 179 52 205 255 5.15918 6.28845
589.928 1525.92 1132.26 0.768074 -0.612703 0.186163 1 179 52 205 255 7.75164 6.43758
618.991 1567.08 1123.07 0.78991 -0.58691 0.177703 1 179 52 205 255 9.55728 6.66169
587.975 2290.98 864.51 0.0432603 -0.0602732 0.997244 1 207 218 45 255 8.98184 22.7964
1206.21 2408.18 937.875 -0.0933157 -0.985285 0.143194 1 239 26 248 255 5.42627 9.43597
485.012 1384.36 1155.35 0.830919 -0.541133 0.129417 1 179 52 205 255 5.99249 6.29139
486.093 1383.66 1147.33 0.829189 -0.54026 0.143404 1 179 52 205 255 6.60154 6.26507
836.779 2371.73 853.971 0.0095463 0.0637953 0.997917 1 207 218 45 255 5.26812 29.1442
669.98 1620.06 1085.96 0.759025 -0.64329 0.100296 1 179 52 205 255 7.52644 6.7533
582.892 2121.43 870.893 0.598191 0.117924 0.792629 1 207 218 45 255 7.72484 19.2513
652.564 1600.28 1082.52 0.782732 -0.611686 0.114764 1 179 52 205 255 6.97642 6.84549
458.851 2049.62 862.014 0.113488 -0.143302 0.983151 1 207 218 45 255 7.11223 16.0964
628.763 2153.27 858.964 0.0481585 -0.0266305 0.998485 1 207 218 45 255 8.41193 20.6893
1022.62 2410.38 842.483 0.109382 -0.992629 0.0521773 1 239 26 248 255 10.628 10.3565
460.9 2024.8 859.206 0.101052 -0.130284 0.986314 1 207 218 45 255 12.5231 16.7793
571.495 2033.08 864.336 0.121347 -0.479777 0.868958 1 207 218 45 255 8.61691 11.6157
585.064 2037.13 863.929 0.140137 -0.443539 0.885231 1 207 218 45 255 6.73446 11.3187
640.012 2107.22 855.398 0.0292061 -0.0243702 0.999276 1 207 218 45 255 7.50815 20.3687
1012.78 2413.23 810.49 0.0792761 -0.99523 -0.0568625 1 239 26 248 255 7.69714 11.1002
623.963 2067.77 854.734 0.144939 0.00471728 0.989429 1 207 218 45 255 10.4316 19.5675
1014 2413.54 796.275 0.105491 -0.993105 -0.0511252 1 239 26 248 255 11.2331 11.1749
637.486 2041.8 856.225 0.144531 -0.0723289 0.986853 1 207 218 45 255 5.17464 16.2952
644.626 2053.29 853.557 0.113485 -0.0359565 0.992889 1 207 218 45 255 7.7344 17.1928
1128.65 2339.29 845.082 -0.0172434 -0.000509183 0.999851 1 68 210 139 255 7.66687 22.8952
498.641 1942.24 852.037 0.0083922 -0.0696086 0.997539 1 207 218 45 255 10.078 17.9815
689.719 2039.21 860.604 -0.285044 -0.0339692 0.957912 1 207 218 45 255 5.12364 27.1575
1122.58 2314.49 843.989 -0.00560348 -0.0278462 0.999597 1 68 210 139 255 9.91499 21.3789
517.371 1413.99 1078.11 0.779021 -0.594282 0.199888 1 179 52 205 255 5.56795 6.01361
553.772 1460.85 1066.2 0.826525 -0.557501 0.0777701 1 179 52 205 255 6.13215 6.66719
671.341 1614.92 1024.02 0.786833 -0.606313 0.115236 1 179 52 205 255 5.42458 6.85921
517.857 1922.48 850.633 0.0522611 -0.0440399 0.997662 1 207 218 45 255 7.54217 17.2877
693.502 2012.05 860.246 -0.26329 -0.129847 0.955938 1 207 218 45 255 5.11459 20.8757
711.421 2005.36 865.306 -0.0574959 -0.223076 0.973104 1 207 218 45 255 5.94864 15.2913
1117.63 2284.27 842.391 -0.00742137 -0.0490066 0.998771 1 68 210 139 255 10.8503 19.6751
513.172 1404.73 1071.91 0.747641 -0.611638 0.258711 1 179 52 205 255 5.68682 6.0225
550.057 1456.2 1057.44 0.841772 -0.526313 0.120062 1 179 52 205 255 5.872 6.46986
633.048 1563.57 1029.92 0.796369 -0.586278 0.148575 1 179 52 205 255 7.88273 6.89112
522.67 1902.34 850.657 -0.00175482 -0.043012 0.999073 1 207 218 45 255 10.3228 18.3477
1113.92 2244.47 842.523 -0.00960908 -0.0688269 0.997582 1 68 210 139 255 6.07442 17.9295
523.904 1417.51 1062.81 0.78293 -0.606307 0.139329 1 179 52 205 255 8.46571 6.25908
564.683 1471.17 1047.38 0.81093 -0.569721 0.13346 1 179 52 205 255 8.51238 6.70194
643.433 1575.42 1020.67 0.796756 -0.578828 0.173603 1 179 52 205 255 7.90865 6.95804
941.132 2109.39 849.286 0.223276 -0.0934867 0.970262 1 207 218 45 255 5.08334 14.1083
975.819 2425.79 713.978 -0.0370326 -0.99804 -0.0504532 1 239 26 248 255 5.49789 11.7499
1099.23 2224.44 838.847 0.0424659 -0.0806412 0.995838 1 68 210 139 255 6.99085 17.5581
1361.06 1812.43 1087.18 -0.11348 -0.957359 0.265682 1 181 162 197 255 5.27251 5.7895
518.79 1409.02 1056.59 0.796072 -0.583407 0.160951 1 179 52 205 255 6.51739 6.17413
534.177 1424.93 1052.38 0.813448 -0.564248 0.141161 1 179 52 205 255 8.64976 6.36291
637.518 1567.99 1012.21 0.749981 -0.639841 0.167728 1 179 52 205 255 7.15561 6.89956
645.803 1568.12 1012.62 0.78574 -0.59788 0.158591 1 179 52 205 255 5.26069 7.52759
839.151 2006.29 857.803 -0.0156687 -0.570813 0.82093 1 207 218 45 255 5.2911 9.46422
962.658 2426.06 695.543 -0.082446 -0.996266 -0.0256385 1 239 26 248 255 6.51144 12.1025
1099.89 2201.36 836.868 0.00728056 -0.0678011 0.997672 1 68 210 139 255 7.39774 17.2702
1104.89 2192.57 836.935 -0.0135274 -0.0624315 0.997958 1 68 210 139 255 5.97426 17.5343
1362.61 1812.47 1077.97 -0.176674 -0.977777 0.112867 1 181 162 197 255 5.32063 6.06768
1374.68 1811.55 1082.93 -0.147726 -0.971226 0.18681 1 181 162 197 255 5.67605 5.84277
642.888 1573.03 1001.67 0.726955 -0.674348 0.129583 1 179 52 205 255 5.51063 6.88923
865.741 1996.7 865.091 -0.125742 -0.0960044 0.987407 1 207 218 45 255 6.80462 17.7252
934.646 2060.56 846.432 0.120747 -0.0740817 0.989915 1 207 218 45 255 9.38014 15.423
1096.14 2172.09 836.628 0.0297639 -0.0649518 0.997444 1 68 210 139 255 9.96394 16.8287
1371.98 1807.45 1077.41 -0.180658 -0.981639 0.0612111 1 181 162 197 255 5.7975 6.2429
647.669 1574.34 991.545 0.73664 -0.656543 0.16221 1 179 52 205 255 5.46706 6.77952
653.029 1580.46 989.732 0.7799 -0.611344 0.134218 1 179 52 205 255 9.72765 7.03719
687.885 1905.74 848.072 0.111277 -0.210534 0.971233 1 207 218 45 255 5.2378 11.9679
697.139 1909.44 849.205 0.115176 -0.226753 0.967118 1 207 218 45 255 7.11006 11.9207
705.858 1916.33 847.728 0.146367 -0.190618 0.970691 1 207 218 45 255 8.05712 12.2874
890.335 1988.16 859.894 0.621816 -0.139878 0.770571 1 207 218 45 255 5.50017 12.1503
920.513 2034.27 845.318 0.237984 -0.0791138 0.968042 1 207 218 45 255 9.10026 14.5302
932.309 2031.9 845.943 0.0689073 -0.0523678 0.996248 1 207 218 45 255 7.75078 15.5998
1087.79 2141.29 833.731 0.0120706 -0.0797188 0.996744 1 68 210 139 255 8.35773 16.245
1335.99 1809.47 1062.93 -0.112228 -0.988784 0.0985436 1 181 162 197 255 6.3154 6.35726
1366.48 1810.53 1066.92 -0.0308153 -0.999268 -0.0226608 1 181 162 197 255 6.09059 6.41337
1373.6 1810.81 1067.74 -0.12421 -0.990627 -0.0568325 1 181 162 197 255 6.55892 6.54428
529.952 1416.58 1030.11 0.80877 -0.573862 0.128736 1 179 52 205 255 6.58114 6.27045
535.514 1422.14 1028.87 0.826159 -0.550258 0.12115 1 179 52 205 255 10.0577 6.66946
558.911 1455.63 1020.02 0.856979 -0.503662 0.109138 1 179 52 205 255 7.07292 6.79534
1084.42 2123.66 833.638 0.0120793 -0.0720148 0.99733 1 68 210 139 255 9.52508 16.0314
1254.17 1831.36 1019.46 -0.613326 -0.563327 0.553619 1 181 162 197 255 7.1494 9.45153
620.304 1537.52 984.619 0.812366 -0.578659 0.0722139 1 179 52 205 255 6.39304 7.26322
910.143 1982.26 842.216 0.125311 -0.0740728 0.989349 1 207 218 45 255 10.5097 14.7862
1067.9 2102.24 830.224 0.0194543 -0.0758322 0.996931 1 68 210 139 255 9.58577 16.0943
1080.63 2095.14 833.103 -0.0334599 -0.0838964 0.995913 1 68 210 139 255 7.34079 15.4744
1248.15 1828.09 1009.42 -0.644847 -0.577885 0.500221 1 181 162 197 255 6.48687 9.75836
592.876 1497.42 990.967 0.79882 -0.580773 0.156808 1 179 52 205 255 7.1955 6.60574
626.34 1540.47 974.777 0.779407 -0.602621 0.171386 1 179 52 205 255 10.3745 6.96288
1249.83 1834.32 998.524 -0.674733 -0.486981 0.554604 1 181 162 197 255 5.35161 10.0202
1059.27 2050.43 828.026 0.0332967 -0.0617726 0.997535 1 68 210 139 255 9.20066 15.7104
1071.53 2053.91 829.292 0.014063 -0.0565802 0.998299 1 68 210 139 255 11.438 15.587
621.135 1529.35 962.06 0.772248 -0.618612 0.144749 1 179 52 205 255 9.31224 6.88092
1063.44 2025.05 828.846 -0.0204058 -0.0840758 0.99625 1 68 210 139 255 7.40432 14.8405
509.874 1384.27 997.961 0.799527 -0.582179 0.147727 1 179 52 205 255 5.56148 6.442
517.885 1393.68 994.989 0.770743 -0.612677 0.174878 1 179 52 205 255 5.35476 6.30897
523.237 1398.73 994.611 0.782415 -0.604663 0.14903 1 179 52 205 255 8.14268 6.45714
610.076 1515.88 959.603 0.805083 -0.574062 0.149314 1 179 52 205 255 5.15023 6.74765
615.455 1522.91 956.36 0.823537 -0.559409 0.0940673 1 179 52 205 255 7.72917 7.10951
629.502 1541.62 948.053 0.806715 -0.577549 0.125096 1 179 52 205 255 9.52384 7.12617
1057.14 2009.15 825.505 0.058405 -0.0700228 0.995834 1 68 210 139 255 6.86899 14.5312
518.067 1390.04 986.811 0.784797 -0.594423 0.175369 1 179 52 205 255 5.05737 6.48531
605.222 1507.04 950.816 0.756278 -0.642189 0.125053 1 179 52 205 255 7.4816 6.8369
1053.38 1985.09 824.558 0.0281566 -0.0640086 0.997552 1 68 210 139 255 7.60917 14.6442
1230.67 1829.28 958.381 -0.440615 -0.840711 0.314744 1 181 162 197 255 5.4853 7.46737
586.835 1480.37 951.641 0.820756 -0.547522 0.163033 1 179 52 205 255 7.56373 6.95768
739.593 1739.7 855.562 -0.680077 -0.405744 0.610628 1 173 242 125 255 5.49477 24.7528
1049.14 1967.12 822.906 0.0489428 -0.0524026 0.997426 1 68 210 139 255 11.8531 14.5616
1217.17 1825.35 946.964 -0.24209 -0.959808 0.141991 1 181 162 197 255 7.11948 7.57342
586.33 1477.73 943.008 0.800482 -0.56789 0.19165 1 179 52 205 255 8.28257 6.86015
695.297 1612.7 900.852 0.655321 -0.698443 0.287633 1 179 52 205 255 5.99215 6.79809
669.045 1701.79 840.391 -0.0235656 -0.0760477 0.996826 1 207 218 45 255 11.0905 13.7765
779.652 1708.06 873.769 -0.0676102 -0.0497272 0.996472 1 173 242 125 255 6.60752 14.2165
1219.01 1823.65 938.802 -0.184538 -0.978632 0.0906891 1 181 162 197 255 8.5636 7.65779
1355.8 1999.8 879.592 0.00813973 0.000544959 0.999967 1 255 255 255 255 5.25617 15.4776
589.106 1465.46 940.506 0.805884 -0.580227 0.117844 1 179 52 205 255 5.40547 7.66179
594.223 1478.6 934.995 0.825846 -0.528097 0.197716 1 179 52 205 255 11.4257 7.14888
691.333 1601.99 896.432 0.61523 -0.715623 0.33072 1 179 52 205 255 5.29912 6.96402
720.979 1715.35 841.429 -0.0119639 -0.0444698 0.998939 1 207 218 45 255 7.47734 13.4008
462.017 1298.43 986.939 0.919784 -0.382823 0.0862734 1 179 52 205 255 5.25862 7.09259
546.693 1410.43 951.883 0.847802 -0.504401 0.163744 1 179 52 205 255 5.51984 7.18914
544.911 1420.49 945.042 0.863038 -0.499571 0.0747967 1 179 52 205 255 6.26031 7.10977
645.496 1546.43 898.215 0.72948 -0.60774 0.313864 1 179 52 205 255 9.09654 6.81695
686.104 1591.9 889.978 0.652941 -0.694083 0.303176 1 179 52 205 255 7.13949 7.14524
1039.63 1902.07 818.85 0.0589232 -0.0565178 0.996661 1 68 210 139 255 13.1184 13.4875
543.243 1419.1 933.706 0.838313 -0.534487 0.107497 1 179 52 205 255 6.31316 7.12675
703.576 1665.79 840.813 0.0125263 -0.0169166 0.999778 1 207 218 45 255 8.51438 13.6652
806.334 1660.55 872.529 -0.0629716 -0.0510843 0.996707 1 173 242 125 255 6.69569 13.1587
1301.65 1858.63 912.675 0.0522886 -0.998479 -0.0174765 1 6 143 138 255 5.7728 7.58061
635.95 1527.24 886.138 0.738254 -0.620065 0.265518 1 179 52 205 255 5.57409 6.74374
682.922 1590.91 865.62 0.776506 -0.470709 -0.418892 1 179 52 205 255 8.85164 14.0537
702.758 1648.92 840.469 0.0811988 -0.0107135 0.99664 1 207 218 45 255 6.54267 12.4563
818.2 1642.14 874.883 -0.0689062 -0.0811594 0.994316 1 173 242 125 255 11.5151 12.3537
593.338 1478.34 894.23 0.770617 -0.576657 0.271322 1 179 52 205 255 9.29905 6.86264
598.908 1484 892.477 0.700547 -0.644278 0.306821 1 179 52 205 255 6.89631 6.63591
604.411 1487.72 890.993 0.752978 -0.578727 0.313207 1 179 52 205 255 8.45998 6.68822
671.108 1597.86 845.898 0.823709 -0.438585 -0.35937 1 179 52 205 255 7.23867 13.8264
699.941 1636.36 837.059 0.134271 -0.0111801 0.990882 1 207 218 45 255 9.31165 12.149
823.417 1632.49 873.811 -0.0189458 -0.15977 0.986972 1 173 242 125 255 10.5198 10.8587
475.835 1325.97 944.198 0.818838 -0.563551 0.109156 1 179 52 205 255 5.32645 6.77536
515.874 1373.32 922.528 0.829551 -0.535024 0.159983 1 179 52 205 255 7.72788 6.76682
654.885 1566.02 850.88 0.722917 -0.450784 -0.523626 1 179 52 205 255 6.32795 18.4152
695.447 1612.31 838.706 0.191681 -0.0959885 0.976752 1 207 218 45 255 6.48816 10.5301
701.235 1618.16 838.318 0.150565 -0.0765236 0.985634 1 207 218 45 255 14.8241 11.0311
828.233 1620.45 873.785 0.0735366 -0.319495 0.94473 1 173 242 125 255 10.7034 9.14286
541.505 1409.34 898.136 0.86863 -0.466915 0.165751 1 179 52 205 255 5.4244 6.95732
667.167 1588.45 830.829 0.121628 -0.952496 0.27921 1 207 218 45 255 5.13283 8.35609
832.271 1613.3 867.72 0.261933 -0.771112 0.580325 1 173 242 125 255 10.7064 7.15106
857.321 1629.35 868.21 0.406652 -0.795773 0.448752 1 173 242 125 255 8.70288 6.76819
865.246 1634.71 867.688 0.432655 -0.82002 0.374668 1 173 242 125 255 6.76689 6.66227
480.7 1326.28 923.618 0.663386 -0.715664 0.218506 1 179 52 205 255 5.07256 6.73483
831.605 1617.11 852.483 0.261523 -0.931646 0.252274 1 173 242 125 255 6.67768 7.25194
588.5 1561.59 794.565 0.343224 -0.0345963 0.938616 1 187 167 140 255 5.92753 9.88181
536.115 1379.79 887.943 0.748464 -0.555549 0.362171 1 179 52 205 255 7.6807 6.83381
538.38 1390.01 883.911 0.804195 -0.501504 0.319006 1 179 52 205 255 5.86411 6.43316
857.06 1625.35 839.327 0.300987 -0.596216 0.744267 1 173 242 125 255 9.72709 6.84813
997.266 1710.13 830.263 0.908856 -0.414209 -0.0491144 1 173 242 125 255 6.70282 12.7277
570.735 1414.19 866.007 0.531091 -0.609093 -0.589023 1 255 255 255 255 5.22107 20.0586
583.721 1518.87 802.568 0.489996 0.13356 0.861432 1 187 167 140 255 8.65477 11.0699
718.939 1586.59 806.175 -0.188128 -0.968955 -0.16042 1 207 218 45 255 5.38439 16.76
734.944 1578.31 814.029 0.0612735 -0.956647 -0.284732 1 207 218 45 255 7.45267 14.2365
957.542 1663.64 835.538 0.14971 -0.161056 0.975524 1 207 218 45 255 6.86879 9.22188
1008.28 1723.93 813.11 0.29013 -0.0580133 0.955227 1 68 210 139 255 10.3588 10.4331
588.194 1511.35 797.344 0.302743 -0.0386435 0.952289 1 187 167 140 255 6.75198 9.82213
713.778 1591.93 785.779 0.142623 -0.973479 -0.178876 1 207 218 45 255 6.53686 12.23
482.325 1304.1 887.562 0.714415 -0.597645 0.363912 1 179 52 205 255 6.88152 6.58036
755.307 1589.08 789.955 -0.0111934 -0.975677 -0.218927 1 207 218 45 255 5.69874 14.1348
483.077 1307.82 875.698 0.757312 -0.594322 0.270667 1 179 52 205 255 5.30388 6.57396
573.274 1471.6 794.314 0.225083 -0.24568 0.942857 1 187 167 140 255 7.00315 8.42926
983.093 1653.28 821.993 0.759205 -0.199201 0.619618 1 207 218 45 255 11.4176 9.20296
1382.32 1861.73 824.203 -0.0446374 -0.129201 0.990613 1 68 210 139 255 6.29333 10.3762
458.624 1405.39 784.424 -0.278411 -0.567512 0.774866 1 187 167 140 255 5.71974 13.7154
560.181 1448.3 795.428 0.10665 -0.214341 0.970919 1 187 167 140 255 6.24248 9.44442
567.066 1452.69 793.646 0.14094 -0.128191 0.981684 1 187 167 140 255 6.10971 9.56703
575.695 1457.56 792.185 0.160636 -0.125269 0.979032 1 187 167 140 255 7.75258 9.2102
981.834 1632.66 823.379 0.821616 -0.0906415 0.56279 1 207 218 45 255 9.573 10.0962
1000.59 1657.39 810.936 0.168003 -0.159606 0.97278 1 68 210 139 255 7.78378 9.13348
433.901 1390.21 775.021 0.123082 -0.117569 0.985408 1 187 167 140 255 8.11766 9.95868
997.228 1643.54 809.277 0.167219 -0.124934 0.977972 1 68 210 139 255 11.4849 9.2136
418.734 1369.82 774.573 0.108707 -0.100198 0.989011 1 187 167 140 255 8.06111 10.2696
977.438 1598.76 826.662 0.78872 -0.0237628 0.614293 1 207 218 45 255 7.83596 10.1118
980.814 1615.95 816.33 0.840255 -0.0603415 0.538823 1 207 218 45 255 10.7552 10.6118
993.239 1627.68 810.09 0.284252 -0.0650207 0.956542 1 68 210 139 255 11.8815 9.29342
1453.39 1855.11 823.2 -0.0105312 -0.0726403 0.997303 1 68 210 139 255 6.07207 10.6788
905.15 1589.21 788.461 -0.159303 -0.962086 -0.221388 1 207 218 45 255 6.8932 14.9124
922.37 1574.17 812.143 0.0921422 -0.932751 -0.348549 1 207 218 45 255 7.81865 14.384
982.893 1590.63 823.594 0.914073 -0.154947 0.374782 1 207 218 45 255 5.98657 9.68945
992.195 1614.73 808.278 0.314798 -0.053422 0.947654 1 68 210 139 255 9.64626 9.25475
1453.82 1845.76 820.079 -0.0221964 -0.0934792 0.995374 1 68 210 139 255 6.91279 10.2176
1462.83 1847.42 820.914 0.00343246 -0.068263 0.997662 1 68 210 139 255 6.75629 10.6282
904.895 1593.35 779.381 0.2343 -0.921161 -0.310752 1 255 255 255 255 5.84937 13.1552
997.091 1599.55 808.212 0.150649 -0.16032 0.975501 1 68 210 139 255 6.73667 8.67196
1456.27 1829.99 819.967 -0.0615474 -0.115895 0.991353 1 68 210 139 255 7.40524 9.84133
1463.51 1835.15 819.06 -0.0494132 -0.0849433 0.99516 1 68 210 139 255 6.80803 10.176
918.801 1583.82 775.395 -0.00211889 -0.45295 0.891533 1 187 167 140 255 5.93649 7.45882
991.594 1589.55 803.122 0.254191 -0.651783 0.714538 1 68 210 139 255 7.75423 6.62338
1457.78 1818.65 817.865 -0.0391788 -0.111871 0.99295 1 68 210 139 255 6.17005 9.69857
1465.11 1822.73 817.492 -0.0674748 -0.122623 0.990157 1 68 210 139 255 6.21254 9.52376
946.85 1582.89 776.386 -0.0249622 -0.431313 0.901857 1 187 167 140 255 5.9587 7.56698
963.626 1588.06 782.348 -0.00819242 -0.996542 -0.0826855 1 207 218 45 255 7.91303 10.5636
1459.36 1806.27 817.166 -0.0403554 -0.103797 0.993779 1 68 210 139 255 8.07324 9.74756
1466.89 1809.55 817.373 -0.0709864 -0.106592 0.991766 1 68 210 139 255 6.15199 9.72389
966.716 1583.05 775.559 0.0210189 -0.566534 0.82377 1 187 167 140 255 6.82556 6.94279
978.647 1581.5 783.973 -0.0254847 -0.954516 0.297068 1 68 210 139 255 8.82396 8.017
1460.91 1794.3 815.303 -0.0205515 -0.0924837 0.995502 1 68 210 139 255 7.45099 9.74526
1468.24 1798.07 815.405 -0.0980696 -0.0972842 0.990413 1 68 210 139 255 6.75786 9.61295
1462.07 1784.16 813.31 -0.0456867 -0.0372317 0.998262 1 68 210 139 255 6.27967 10.1051
1469.53 1785.92 814.35 -0.0963032 -0.0431814 0.994415 1 68 210 139 255 5.52214 10.0202
1463.55 1770.67 815.697 -0.0475521 -0.0539227 0.997412 1 68 210 139 255 6.13288 9.7261
1470.84 1773.88 815.629 -0.0491752 -0.0540413 0.997327 1 68 210 139 255 5.45683 9.75628
1456.46 1756.76 812.986 -0.0406387 -0.0657705 0.997007 1 68 210 139 255 8.18052 9.59417
1464.11 1759.84 812.999 -0.0478838 -0.0822259 0.995463 1 68 210 139 255 7.52096 9.41948
1471.99 1763.78 813.931 -0.0582123 -0.0580812 0.996613 1 68 210 139 255 6.80972 9.61539
1458.03 1743.47 812.774 -0.0379349 -0.0607084 0.997434 1 68 210 139 255 7.55783 9.47999
1465.41 1747.39 812.196 -0.0435162 -0.0524454 0.997675 1 68 210 139 255 6.85392 9.59113
1472.32 1750.98 813.631 -0.0385325 -0.0838573 0.995732 1 68 210 139 255 7.31238 9.28592
1460.59 1732.05 812.163 -0.0309004 -0.0663513 0.997318 1 68 210 139 255 5.57516 9.20149
1466.87 1736.65 811.232 -0.0517119 -0.0677585 0.996361 1 68 210 139 255 5.6039 9.12745
684.725 1360.13 764.953 -0.0921846 0.0214157 0.995512 1 187 167 140 255 6.14877 10.5114
1460.15 1722.01 810.713 -0.0464709 -0.0603829 0.997093 1 68 210 139 255 6.34763 9.11519
1466.95 1724.15 811.586 -0.0287647 -0.0589898 0.997844 1 68 210 139 255 6.79413 9.24659
1462.39 1710.79 810.727 -0.0164149 -0.0494112 0.998644 1 68 210 139 255 5.6429 9.08105
1468.98 1714.61 810.243 -0.0362115 -0.0602005 0.997529 1 68 210 139 255 6.80579 9.05218
901.851 2200.71 88.6073 -0.571831 -0.070962 0.817297 1 255 255 255 255 7.70201 23.2107
1464.71 1699.33 810.38 -0.0271103 -0.0517529 0.998292 1 68 210 139 255 7.41446 9.0318
1470.95 1702.65 811.219 -0.0508167 -0.0558279 0.997146 1 68 210 139 255 5.43478 8.95346
943.025 2173.17 107.304 0.0987326 -0.192014 0.976413 1 255 255 255 255 5.74279 13.4438
1184.35 1559.72 786.509 -0.128211 -0.904993 0.405648 1 68 210 139 255 7.28403 6.6516
1465.09 1687.48 810.153 -0.0504258 -0.0814513 0.995401 1 68 210 139 255 6.10273 8.63565
1472.72 1691.83 810.393 -0.0607895 -0.0684679 0.9958 1 68 210 139 255 5.98201 8.74406
1466.46 1678.71 809.41 -0.0460835 -0.064101 0.996879 1 68 210 139 255 5.5174 8.53159
1472.5 1681.85 808.828 -0.0447138 -0.0627694 0.997026 1 68 210 139 255 6.16839 8.6
1001.56 2203.12 72.6034 0.0589866 -0.103362 0.992893 1 8 38 238 255 8.74296 14.7476
1468.34 1669.46 808.264 -0.040763 -0.0517451 0.997828 1 68 210 139 255 6.70138 8.70886
1474.5 1670.16 809.169 -0.0341084 -0.0373075 0.998722 1 68 210 139 255 6.07101 8.69941
1469.49 1658.95 807.476 -0.0469772 -0.0390372 0.998133 1 68 210 139 255 5.58924 8.58625
1475.59 1660.22 808.706 -0.0333573 -0.0537508 0.997997 1 68 210 139 255 6.17232 8.43436
1097.37 2041.71 237.65 0.453328 -0.891185 0.0168279 1 255 255 255 255 6.26236 14.5579
1470.45 1647.37 807.43 -0.0518721 -0.0537804 0.997205 1 68 210 139 255 7.96925 8.45755
1476.92 1649.1 808.671 -0.0435098 -0.0540457 0.99759 1 68 210 139 255 5.99349 8.37064
971.926 2105.79 72.1467 0.669578 -0.105703 0.735181 1 8 38 238 255 9.27739 15.1385
1472.07 1635.85 807.071 -0.0595611 -0.067834 0.995917 1 68 210 139 255 6.72224 8.15287
1478.53 1637.97 807.785 -0.0196735 -0.0734187 0.997107 1 68 210 139 255 7.17423 8.17244
978.205 2092.61 66.4978 0.417649 -0.069921 0.905914 1 8 38 238 255 11.6801 14.2399
1473.93 1624.03 807.279 -0.0623404 -0.0809535 0.994766 1 68 210 139 255 5.98482 8.0868
1480.29 1628.1 806.413 -0.0532014 -0.0763248 0.995663 1 68 210 139 255 7.14022 8.05832
693.664 1244.7 763.893 -0.276408 0.0467697 0.959902 1 187 167 140 255 6.53916 12.8609
1474.96 1614.81 804.735 -0.0671331 -0.0526379 0.996355 1 68 210 139 255 6.69697 8.02145
965.715 2035.44 78.7615 0.718493 -0.0622808 0.692741 1 255 255 255 255 7.10854 15.3643
1121.67 2105.64 95.9363 0.918118 -0.0864697 0.386758 1 255 255 255 255 5.97116 24.1124
1171.84 2169.5 62.1017 0.0526932 -0.121189 0.99123 1 117 246 163 255 6.34423 13.8623
1188.48 2158.01 71.1435 -0.0153562 -0.0860678 0.996171 1 117 246 163 255 5.67107 14.2356
1475.91 1603.41 805.114 -0.0326487 -0.0287332 0.999054 1 68 210 139 255 6.03844 8.06415
1482.55 1605.45 805.484 -0.0242556 -0.0396855 0.998918 1 68 210 139 255 7.20027 8.06794
974.449 2024.11 66.7843 0.49104 -0.0745385 0.867942 1 8 38 238 255 12.0626 13.8036
1108.99 2069.23 98.856 0.873413 -0.329985 0.358133 1 255 255 255 255 5.6271 18.1761
